ncols         543
nrows         32
xllcorner     94.05
yllcorner     32.8
cellsize      0.025
NODATA_value  -9999
4553 4557 4565 4565 4629 4681 4735 -9999 -9999 -9999 -9999 -9999 -9999 -9999 -9999 -9999 -9999 -9999 -9999 -9999 -9999 -9999 -9999 -9999 -9999 -9999 -9999 -9999 -9999 -9999 5113 5069 5030 5030 5219 5201 5201 -9999 -9999 -9999 -9999 -9999 -9999 4916 4881 4881 4874 4893 4797 4692 4698 4613 4499 4467 4467 4529 4598 4409 4432 4740 4631 4554 4620 4696 4588 4630 4714 4953 5014 4608 4717 4869 4878 4927 4842 4355 4749 4239 4239 4361 4326 4343 4343 4399 4537 4717 4630 4630 4720 4720 4524 4266 4222 4442 4125 4511 4308 4065 4072 4343 4039 3803 3803 4239 4239 3823 4537 4228 4462 4549 4638 4471 4298 4309 4442 4442 4419 4674 4674 4683 4611 4608 4542 4450 4428 4404 4404 4352 4577 4644 4623 4623 4801 4801 4693 4747 4956 4754 4739 4808 4694 4617 4502 4426 4532 4334 4334 4260 4260 4420 4692 4546 4621 4461 4501 4459 4231 4212 4365 4365 4577 4561 4561 4455 4452 4610 4593 4577 4540 4589 4500 4485 4546 4562 4627 4585 4722 4722 4676 4589 4716 4780 4673 4675 -9999 -9999 -9999 -9999 -9999 -9999 -9999 -9999 -9999 -9999 -9999 -9999 -9999 -9999 -9999 -9999 -9999 -9999 -9999 -9999 -9999 -9999 -9999 -9999 -9999 -9999 -9999 -9999 -9999 -9999 -9999 -9999 -9999 -9999 -9999 -9999 -9999 -9999 -9999 -9999 -9999 -9999 -9999 -9999 -9999 -9999 -9999 -9999 -9999 -9999 -9999 -9999 -9999 -9999 -9999 -9999 -9999 -9999 -9999 -9999 -9999 -9999 -9999 -9999 -9999 -9999 -9999 -9999 4305 4259 4249 4255 4357 -9999 -9999 -9999 -9999 -9999 -9999 -9999 -9999 -9999 -9999 -9999 -9999 -9999 -9999 -9999 -9999 -9999 -9999 -9999 -9999 -9999 -9999 -9999 -9999 -9999 -9999 -9999 -9999 -9999 -9999 -9999 -9999 -9999 -9999 -9999 -9999 -9999 -9999 -9999 -9999 -9999 -9999 -9999 -9999 -9999 -9999 -9999 -9999 -9999 -9999 -9999 -9999 -9999 -9999 -9999 -9999 -9999 -9999 -9999 -9999 -9999 -9999 -9999 -9999 -9999 -9999 -9999 -9999 -9999 -9999 -9999 -9999 -9999 -9999 -9999 -9999 -9999 -9999 -9999 -9999 -9999 -9999 -9999 -9999 -9999 -9999 -9999 -9999 -9999 -9999 -9999 -9999 -9999 -9999 -9999 -9999 -9999 -9999 -9999 -9999 -9999 -9999 -9999 -9999 -9999 -9999 -9999 3198 3297 3107 3047 3164 3465 3132 2833 3138 3138 3493 3458 3616 3676 3369 3527 3086 2778 2611 2524 2524 2425 2425 2685 2685 3006 2778 2358 2229 2110 2110 2963 2558 2558 2894 3097 2662 2446 3271 3214 3188 2875 3449 2447 2418 2037 1913 1820 1814 1868 1934 1934 2314 1659 1425 1425 1161 1161 1264 1113 1243 1793 1793 2124 2124 2521 2521 1770 2383 2318 2233 2239 2688 2376 1916 1916 1971 1971 1982 1728 1721 1721 1563 1563 1877 1739 1612 1668 1668 1411 1214 1029 1308 1262 938 938 1079 920 1048 1113 1018 1457 876 837 837 865 922 1186 1186 987 798 798 761 764 784 1164 749 740 1007 1007 1066 1066 1245 1317 1395 1484 1686 1590 1970 -9999 -9999 -9999 -9999 -9999 -9999 -9999 -9999 -9999 -9999 -9999 -9999 -9999 -9999 -9999 -9999 -9999 -9999 -9999 -9999 -9999 -9999 -9999 -9999 -9999 -9999 -9999 -9999 -9999 -9999 -9999 -9999 -9999 -9999 -9999 -9999 -9999 -9999 -9999 -9999 -9999 -9999 -9999 -9999 -9999 -9999 -9999 -9999 -9999 -9999
4557 4556 4565 4588 4605 4681 4789 -9999 -9999 -9999 -9999 -9999 -9999 -9999 -9999 -9999 -9999 -9999 -9999 -9999 -9999 -9999 -9999 -9999 -9999 -9999 -9999 -9999 -9999 -9999 5292 5310 -9999 -9999 -9999 -9999 -9999 -9999 -9999 -9999 -9999 -9999 -9999 -9999 4881 4881 4874 5151 5302 4778 4971 4613 4776 4531 4661 4529 4419 4784 4506 4655 4812 4812 4620 4848 4709 4773 4767 4767 4714 4714 4717 4571 4686 4619 5082 4330 4378 4334 4555 4312 4477 4740 4410 4638 4537 4717 4490 4480 4759 4459 4322 4322 4590 4254 4575 4511 5048 4283 4382 4593 4358 3973 3806 3785 3775 3880 3880 4228 4462 4905 4638 4619 4450 4594 4479 4479 4651 4674 4674 4683 4932 4608 4573 4573 4701 4519 4342 4412 4577 4856 4591 4699 4801 4801 4944 4687 4956 4589 4702 4732 4933 4525 4467 4426 4532 4398 4667 4260 4260 4382 4592 4546 4433 4499 4670 4692 4231 4231 4214 4365 4577 4561 4561 4594 4576 4583 4631 4598 4598 4532 4532 4502 4600 4562 4627 4665 4699 4722 4571 4836 4716 4716 4745 4707 -9999 -9999 -9999 -9999 -9999 -9999 -9999 -9999 -9999 -9999 -9999 -9999 -9999 -9999 -9999 -9999 -9999 -9999 -9999 -9999 -9999 -9999 -9999 -9999 -9999 -9999 -9999 -9999 -9999 -9999 -9999 -9999 -9999 -9999 -9999 -9999 -9999 -9999 -9999 -9999 -9999 -9999 -9999 -9999 -9999 -9999 -9999 -9999 -9999 -9999 -9999 -9999 -9999 -9999 -9999 -9999 -9999 -9999 -9999 -9999 -9999 -9999 -9999 -9999 -9999 -9999 -9999 -9999 4305 4235 4235 4207 4357 4338 4338 -9999 -9999 -9999 -9999 -9999 -9999 -9999 -9999 -9999 -9999 -9999 -9999 -9999 -9999 -9999 -9999 -9999 -9999 -9999 -9999 -9999 -9999 -9999 -9999 -9999 -9999 -9999 -9999 -9999 -9999 -9999 -9999 -9999 -9999 -9999 -9999 -9999 -9999 -9999 -9999 -9999 -9999 -9999 -9999 -9999 -9999 -9999 -9999 -9999 -9999 -9999 -9999 -9999 -9999 -9999 -9999 -9999 -9999 -9999 -9999 -9999 -9999 -9999 -9999 -9999 -9999 -9999 -9999 -9999 -9999 -9999 -9999 -9999 -9999 -9999 -9999 -9999 -9999 -9999 -9999 -9999 -9999 -9999 -9999 -9999 -9999 -9999 -9999 -9999 -9999 -9999 -9999 -9999 -9999 -9999 -9999 -9999 -9999 -9999 -9999 -9999 -9999 -9999 -9999 -9999 3297 3297 3090 3047 3144 3442 3157 2852 3138 3138 3432 3458 3616 3475 3369 3527 3134 3367 3367 3349 2524 2510 3607 2685 2685 3056 3056 3051 2330 2110 2055 2429 2387 2319 3452 2869 2399 2399 2721 3214 3167 2981 3140 3091 2885 2646 2670 1820 1814 1868 1934 1699 1699 2276 2412 1560 1224 1224 1430 1105 1105 2155 2155 1915 1873 2193 1549 1770 2244 2392 2074 2074 2688 2192 1758 1758 1823 1823 1857 1877 1970 1970 2090 1933 1904 1563 1414 1246 1246 1047 1040 1029 1308 1262 1044 1044 1260 920 902 1040 949 886 876 837 837 864 864 909 803 924 846 846 761 764 776 857 704 800 1007 1007 1157 1176 1316 1317 1196 1682 1585 1590 1982 -9999 -9999 -9999 -9999 -9999 -9999 -9999 -9999 -9999 -9999 -9999 -9999 -9999 -9999 -9999 -9999 -9999 -9999 -9999 -9999 -9999 -9999 -9999 -9999 -9999 -9999 -9999 -9999 -9999 -9999 -9999 -9999 -9999 -9999 -9999 -9999 -9999 -9999 -9999 -9999 -9999 -9999 -9999 -9999 -9999 -9999 -9999 -9999 -9999 -9999
4557 4586 4603 4596 4626 4695 4676 4683 -9999 -9999 -9999 -9999 -9999 -9999 -9999 -9999 -9999 -9999 -9999 -9999 -9999 -9999 -9999 -9999 -9999 -9999 -9999 -9999 -9999 -9999 -9999 -9999 -9999 -9999 -9999 -9999 -9999 -9999 -9999 -9999 -9999 -9999 -9999 -9999 4884 4916 4899 4899 4777 5092 4971 4971 4601 4722 4661 4700 4482 4595 4506 4602 4986 4857 4857 4716 4716 4773 4746 4615 4615 4714 4458 4438 4434 4686 4327 4560 4643 4635 4528 4349 4349 4444 4532 4765 4765 4668 4764 4490 4377 4377 4701 4322 4232 4862 4575 4575 4238 4233 4575 4339 4632 4553 4161 3799 3775 3861 3880 3911 4354 4582 4643 4621 5082 4647 4731 4622 4898 4839 4661 4726 4670 4578 4553 4545 4489 4448 4329 4337 4614 4496 4714 4699 4518 4602 4511 4591 4550 4589 4764 4782 4825 4806 4779 4602 4602 4537 4537 4202 4202 4441 4555 4321 4413 4503 4670 4308 4400 4250 4193 4193 4399 4534 4418 4735 4735 4651 4610 4592 4592 4615 4502 4558 4545 4603 4621 4591 4635 4582 4593 4793 4756 4826 4683 4791 4657 4858 -9999 -9999 -9999 -9999 -9999 -9999 -9999 -9999 -9999 -9999 -9999 -9999 -9999 -9999 -9999 -9999 -9999 -9999 -9999 -9999 -9999 -9999 -9999 -9999 -9999 -9999 -9999 -9999 -9999 -9999 -9999 -9999 -9999 -9999 -9999 -9999 -9999 -9999 -9999 -9999 -9999 -9999 -9999 -9999 -9999 -9999 -9999 -9999 -9999 -9999 -9999 -9999 -9999 -9999 -9999 -9999 -9999 -9999 -9999 -9999 -9999 -9999 -9999 -9999 -9999 -9999 4212 4146 4075 4190 4428 4479 4479 4442 -9999 -9999 -9999 -9999 -9999 -9999 -9999 -9999 -9999 -9999 -9999 -9999 -9999 -9999 -9999 -9999 -9999 -9999 -9999 -9999 -9999 -9999 -9999 -9999 -9999 -9999 -9999 -9999 -9999 -9999 -9999 -9999 -9999 -9999 -9999 -9999 -9999 -9999 -9999 -9999 -9999 -9999 -9999 -9999 -9999 -9999 -9999 -9999 -9999 -9999 -9999 -9999 -9999 -9999 -9999 -9999 -9999 -9999 -9999 -9999 -9999 -9999 -9999 -9999 -9999 -9999 -9999 -9999 -9999 -9999 -9999 -9999 -9999 -9999 -9999 -9999 -9999 -9999 -9999 -9999 -9999 -9999 -9999 -9999 -9999 -9999 -9999 -9999 -9999 -9999 -9999 -9999 -9999 -9999 -9999 -9999 -9999 -9999 -9999 -9999 -9999 -9999 -9999 -9999 -9999 3284 3090 3144 3286 3477 3294 3096 3145 3575 4024 3715 3479 3479 3400 3172 3134 2924 2924 3225 3225 2624 2947 3523 3523 3486 3031 3250 2475 2389 2082 2158 2177 2177 2028 2779 2155 2399 3441 3602 3601 2881 2924 2601 2601 2515 2897 2257 2514 2081 2212 1699 1877 1571 1855 2033 1889 1630 1630 1106 1106 1542 1542 1791 1791 1662 1404 1621 1901 2316 2074 1689 1751 1889 1594 1594 1794 1794 1692 1781 1970 1970 1920 1881 2128 1563 1414 1207 1115 1047 1040 1478 1394 1083 1104 1148 1148 1226 919 1115 885 886 950 1164 1055 1058 919 909 803 852 717 903 1061 881 763 763 817 820 1410 1410 1040 1033 1069 1069 1256 1682 1614 1599 1982 -9999 -9999 -9999 -9999 -9999 -9999 -9999 -9999 -9999 -9999 -9999 -9999 -9999 -9999 -9999 -9999 -9999 -9999 -9999 -9999 -9999 -9999 -9999 -9999 -9999 -9999 -9999 -9999 -9999 -9999 -9999 -9999 -9999 -9999 -9999 -9999 -9999 -9999 -9999 -9999 -9999 -9999 -9999 -9999 -9999 -9999 -9999 -9999 -9999 -9999
4646 4646 4611 4611 4750 4712 4676 4683 -9999 -9999 -9999 -9999 -9999 -9999 -9999 -9999 -9999 -9999 -9999 -9999 -9999 -9999 -9999 -9999 -9999 -9999 -9999 -9999 -9999 -9999 -9999 -9999 -9999 -9999 -9999 -9999 -9999 -9999 -9999 -9999 -9999 -9999 -9999 -9999 4939 5112 4978 4777 4757 4757 5154 4662 4721 4722 4722 4794 5086 4701 4602 4566 4566 5134 4679 4668 4716 4709 5236 4778 4615 4865 4516 4516 4429 4366 4366 4483 4397 4919 4977 4643 4330 4397 4460 4773 4582 5075 4764 4764 4492 4874 4304 4254 4254 4512 4904 4203 4118 4233 4575 3931 3979 4893 4439 3992 4106 3866 3746 4351 4172 4582 4269 5041 5017 4771 4778 4975 4898 4945 4993 4581 4670 4578 4694 4545 4489 4388 4496 4337 4335 4559 4667 4714 4444 4468 4413 4591 4550 4580 4764 4559 4825 4464 4779 4602 4602 4310 4537 4276 4276 4430 4294 4294 4459 4559 4398 4398 4358 4400 4193 4193 4272 4399 4418 4531 4531 4559 4559 4649 4592 4538 4538 4558 4545 4624 4621 4582 4560 4560 4677 4677 4555 4593 4706 4791 4623 4858 -9999 -9999 -9999 -9999 -9999 -9999 -9999 -9999 -9999 -9999 -9999 -9999 -9999 -9999 -9999 -9999 -9999 -9999 -9999 -9999 -9999 -9999 -9999 -9999 -9999 -9999 -9999 -9999 -9999 -9999 -9999 -9999 -9999 -9999 -9999 -9999 -9999 -9999 -9999 -9999 -9999 -9999 -9999 -9999 -9999 -9999 -9999 -9999 -9999 -9999 -9999 -9999 -9999 -9999 -9999 -9999 -9999 -9999 -9999 -9999 -9999 -9999 -9999 -9999 -9999 -9999 4212 4072 4072 4428 4428 4226 4505 4343 4348 4367 -9999 4712 4434 4434 4385 4385 -9999 -9999 -9999 -9999 -9999 -9999 -9999 -9999 -9999 -9999 -9999 -9999 -9999 -9999 -9999 -9999 -9999 -9999 -9999 -9999 -9999 -9999 -9999 -9999 -9999 -9999 -9999 -9999 -9999 -9999 -9999 -9999 -9999 -9999 -9999 -9999 -9999 -9999 -9999 -9999 -9999 -9999 -9999 -9999 -9999 -9999 -9999 -9999 -9999 -9999 -9999 -9999 -9999 -9999 -9999 -9999 -9999 -9999 -9999 -9999 -9999 -9999 -9999 -9999 -9999 -9999 -9999 -9999 -9999 -9999 -9999 -9999 -9999 -9999 -9999 -9999 -9999 -9999 -9999 -9999 -9999 -9999 -9999 -9999 -9999 -9999 -9999 -9999 -9999 -9999 -9999 -9999 -9999 -9999 -9999 -9999 -9999 3417 3291 3144 3332 3669 3636 2969 2986 3336 3875 3315 3315 3303 3265 3265 3118 2977 2977 3386 3246 2624 3051 3545 3545 2931 3143 2822 2475 2389 2437 2437 2177 2177 2382 2112 2155 2622 3441 3129 3601 2976 2738 2738 2564 2755 2897 2758 2569 2345 2534 1877 1877 1526 1526 1477 1881 2039 2039 1356 1110 1119 1542 1756 1756 1853 1372 1372 1708 2021 1894 1898 1701 1725 1418 1418 1551 1551 1692 1692 2016 2016 1860 1561 1557 1525 1424 1207 1115 1115 1289 1283 1296 1222 1257 1257 1413 1141 935 935 939 1034 1110 1268 1372 1206 1036 1035 1035 717 717 872 1205 722 722 763 961 1341 1421 1421 979 948 1069 1069 1007 1057 1629 1629 -9999 -9999 -9999 -9999 -9999 -9999 -9999 -9999 -9999 -9999 -9999 -9999 -9999 -9999 -9999 -9999 -9999 -9999 -9999 -9999 -9999 -9999 -9999 -9999 -9999 -9999 -9999 -9999 -9999 -9999 -9999 -9999 -9999 -9999 -9999 -9999 -9999 -9999 -9999 -9999 -9999 -9999 -9999 -9999 -9999 -9999 -9999 -9999 -9999 -9999 -9999
4646 4646 4640 4674 4680 4745 4706 4706 -9999 -9999 -9999 -9999 -9999 -9999 -9999 -9999 -9999 -9999 -9999 -9999 -9999 -9999 -9999 -9999 -9999 -9999 -9999 -9999 -9999 -9999 -9999 -9999 -9999 -9999 -9999 -9999 -9999 -9999 -9999 -9999 -9999 -9999 -9999 -9999 -9999 4995 4849 5059 4784 4757 4696 4917 4721 4725 4725 4899 5086 4885 4755 4566 4566 4563 4699 4688 4686 4709 4843 5150 4639 5297 4516 4516 4413 4368 4357 4395 4397 4653 4761 4413 4410 4382 4397 4405 4566 4772 4780 4784 4909 4874 4584 4425 4864 4649 4649 4768 4118 3949 4041 4378 3979 3887 3890 4026 3953 3756 3756 4107 3903 4114 4165 4452 4326 4514 4861 4975 4722 4601 4601 4581 4218 4312 4312 4651 4637 4637 4496 4294 4438 4423 4625 4625 4524 4400 4413 4429 4815 4815 4397 4552 4774 4464 4441 4449 4552 4310 4272 4231 4196 4297 4296 4611 4459 4447 4464 4321 4407 4290 4421 4185 4195 4257 4374 4374 4480 4461 4626 4572 4640 4612 4598 4586 4567 4574 4532 4621 4458 4572 4524 4677 4534 4555 4650 4607 4572 4725 4725 -9999 -9999 -9999 -9999 -9999 -9999 -9999 -9999 -9999 -9999 -9999 -9999 -9999 -9999 -9999 -9999 -9999 -9999 -9999 -9999 -9999 -9999 -9999 -9999 -9999 -9999 -9999 -9999 -9999 -9999 -9999 -9999 -9999 -9999 -9999 -9999 -9999 -9999 -9999 -9999 -9999 -9999 -9999 -9999 -9999 -9999 -9999 -9999 -9999 -9999 -9999 -9999 -9999 -9999 -9999 -9999 -9999 -9999 -9999 -9999 -9999 -9999 -9999 -9999 -9999 4245 4169 4072 4035 4071 4498 4498 4220 4220 4350 4239 4239 4323 4530 4329 4378 -9999 -9999 -9999 -9999 -9999 -9999 -9999 -9999 -9999 -9999 -9999 -9999 -9999 -9999 -9999 -9999 -9999 -9999 -9999 -9999 -9999 -9999 -9999 -9999 -9999 -9999 -9999 -9999 -9999 -9999 -9999 -9999 -9999 -9999 -9999 -9999 -9999 -9999 -9999 -9999 -9999 -9999 -9999 -9999 -9999 -9999 -9999 -9999 -9999 -9999 -9999 -9999 -9999 -9999 -9999 -9999 -9999 -9999 -9999 -9999 -9999 -9999 -9999 -9999 -9999 -9999 -9999 -9999 -9999 -9999 -9999 -9999 -9999 -9999 -9999 -9999 -9999 -9999 -9999 -9999 -9999 -9999 -9999 -9999 -9999 -9999 -9999 -9999 -9999 -9999 -9999 -9999 -9999 -9999 -9999 -9999 -9999 -9999 3565 3273 3747 3596 3470 2986 2986 3118 3458 3315 3315 3488 3083 3886 3118 3305 3305 3120 3246 2946 3412 3458 3046 2931 2931 2822 2962 2580 2634 2437 2300 2211 1950 1950 1981 2251 2624 2624 2977 2816 2720 3004 2449 2495 3014 2508 2682 2547 2947 2265 2725 1829 2004 1465 1385 1385 2381 2627 1475 1194 1149 1059 1085 1823 1372 1262 1510 1511 1421 1302 1297 1367 1399 1418 1551 1551 1692 1692 2033 2033 1801 1935 1557 1557 1424 1251 1281 1281 1734 1283 1401 1243 1332 1061 1061 1086 978 1233 998 1173 1148 1148 1385 1081 1024 1087 1087 1053 1081 950 709 722 691 712 1043 917 1107 1396 902 902 1262 1121 1256 1256 1656 -9999 -9999 -9999 -9999 -9999 -9999 -9999 -9999 -9999 -9999 -9999 -9999 -9999 -9999 -9999 -9999 -9999 -9999 -9999 -9999 -9999 -9999 -9999 -9999 -9999 -9999 -9999 -9999 -9999 -9999 -9999 -9999 -9999 -9999 -9999 -9999 -9999 -9999 -9999 -9999 -9999 -9999 -9999 -9999 -9999 -9999 -9999 -9999 -9999 -9999 -9999 -9999
4701 4661 4670 4693 4680 4692 4721 4744 -9999 -9999 -9999 -9999 -9999 -9999 -9999 -9999 -9999 -9999 -9999 -9999 -9999 -9999 -9999 -9999 -9999 -9999 -9999 -9999 -9999 -9999 -9999 -9999 -9999 -9999 -9999 -9999 -9999 -9999 -9999 -9999 -9999 -9999 -9999 -9999 -9999 -9999 4849 5059 4868 4696 4804 4917 4917 4815 5055 4899 4737 4645 4638 4904 4546 4863 4680 4733 4723 4982 4843 4840 5123 4847 4760 4546 4548 4548 4369 4593 4843 4653 4548 4459 4653 4418 4375 4459 4449 4772 4720 4700 4906 4740 4625 4900 4761 4649 4649 4455 4614 4041 4035 4134 4809 3920 4117 4026 3815 3978 3851 4107 3903 3912 4091 4452 4246 4724 4661 5114 4722 4178 4601 4377 4396 4088 4312 4651 4509 4509 4820 4294 4276 4423 4462 4455 4491 4358 4306 4306 4447 4447 4333 4456 4795 4626 4826 4769 4762 4430 4430 4317 4196 4157 4483 4334 4630 4447 4295 4295 4250 4227 4421 4185 4153 4289 4307 4374 4480 4461 4473 4572 4565 4746 4598 4598 4574 4574 4532 4479 4440 4433 4524 4538 4470 4555 4650 4558 4567 4613 4725 -9999 -9999 -9999 -9999 -9999 -9999 -9999 -9999 -9999 -9999 -9999 -9999 -9999 -9999 -9999 -9999 -9999 -9999 -9999 -9999 -9999 -9999 -9999 -9999 -9999 -9999 -9999 -9999 -9999 -9999 -9999 -9999 -9999 -9999 -9999 -9999 -9999 -9999 -9999 -9999 -9999 -9999 -9999 -9999 -9999 -9999 -9999 -9999 -9999 -9999 -9999 -9999 -9999 -9999 -9999 -9999 -9999 -9999 -9999 -9999 -9999 -9999 -9999 -9999 -9999 4227 4169 4169 4035 4286 4168 4498 4462 4417 4350 4164 4239 4562 4530 4218 -9999 -9999 -9999 -9999 -9999 -9999 -9999 -9999 -9999 -9999 -9999 -9999 -9999 -9999 -9999 -9999 -9999 -9999 -9999 -9999 -9999 -9999 -9999 -9999 -9999 -9999 -9999 -9999 -9999 -9999 -9999 -9999 -9999 -9999 -9999 -9999 -9999 -9999 -9999 -9999 -9999 -9999 -9999 -9999 -9999 -9999 -9999 -9999 -9999 -9999 -9999 -9999 -9999 -9999 -9999 -9999 -9999 -9999 -9999 -9999 -9999 -9999 -9999 -9999 -9999 -9999 -9999 -9999 -9999 -9999 -9999 -9999 -9999 -9999 -9999 -9999 -9999 -9999 -9999 -9999 -9999 -9999 -9999 -9999 -9999 -9999 -9999 -9999 -9999 -9999 -9999 -9999 -9999 -9999 -9999 -9999 -9999 -9999 -9999 3565 3326 3346 3520 3297 3495 2991 3118 3570 3976 3649 3236 3236 3755 3552 3596 3268 3173 2769 2929 3412 3511 3804 3353 3341 3496 2619 2580 2634 2634 2555 2674 2053 2053 1872 2986 2624 2624 2977 3579 3117 3117 2449 2297 2297 2192 2192 2236 2531 2417 3255 2144 2144 1738 1385 1385 1844 1861 1871 2383 1229 1045 1045 1823 1823 1210 1862 1511 1224 1270 1297 1367 1399 1525 1824 1731 1780 1769 1925 1925 1698 1935 1805 1360 1360 1253 1281 1281 1734 1406 1563 1324 1126 1061 1061 1057 1233 1233 1092 1233 1078 1078 1220 1081 1067 1087 1087 1053 979 989 989 727 691 686 786 1121 1096 1123 1258 902 1034 1034 987 1118 1656 -9999 -9999 -9999 -9999 -9999 -9999 -9999 -9999 -9999 -9999 -9999 -9999 -9999 -9999 -9999 -9999 -9999 -9999 -9999 -9999 -9999 -9999 -9999 -9999 -9999 -9999 -9999 -9999 -9999 -9999 -9999 -9999 -9999 -9999 -9999 -9999 -9999 -9999 -9999 -9999 -9999 -9999 -9999 -9999 -9999 -9999 -9999 -9999 -9999 -9999 -9999 -9999
4751 4730 4799 4802 4763 4714 4781 4804 -9999 -9999 -9999 -9999 -9999 -9999 -9999 -9999 -9999 -9999 -9999 -9999 -9999 -9999 -9999 -9999 -9999 -9999 -9999 -9999 -9999 -9999 -9999 -9999 -9999 -9999 -9999 -9999 -9999 -9999 -9999 -9999 -9999 -9999 -9999 -9999 -9999 -9999 -9999 5050 4868 4808 4804 4905 4782 4871 4983 4887 5134 4645 4547 4547 4731 4638 4862 4742 4918 4918 4784 4842 4842 5123 4827 4768 4548 4548 4422 5033 4990 4505 4852 4640 4640 4505 4564 4422 4683 4479 4621 4815 4615 4659 4785 4717 4932 4932 4679 4560 4123 4133 4035 4712 4291 4393 4117 3996 3815 3780 3837 3931 4832 4185 4201 4293 4853 4724 4114 4114 4288 3872 4015 4563 4563 4550 4078 4933 4933 4604 4451 4492 4472 4472 4373 4378 4333 4266 4318 4311 4447 4447 4246 4379 4436 4399 4447 4434 4290 4444 4658 4413 4136 4136 4386 4386 4589 4304 4295 4272 4294 4193 4167 4575 4359 4213 4226 4240 4350 4455 4473 4435 4501 4557 4746 4611 4675 4651 4516 4649 4440 4440 4378 4378 4405 4449 4616 4537 4537 4567 4594 -9999 -9999 -9999 -9999 -9999 -9999 -9999 -9999 -9999 -9999 -9999 -9999 -9999 -9999 -9999 -9999 -9999 -9999 -9999 -9999 -9999 -9999 -9999 -9999 -9999 -9999 -9999 -9999 -9999 -9999 -9999 -9999 -9999 -9999 -9999 -9999 -9999 -9999 -9999 -9999 -9999 -9999 -9999 -9999 -9999 -9999 -9999 -9999 -9999 -9999 -9999 -9999 -9999 -9999 -9999 -9999 -9999 -9999 -9999 -9999 -9999 -9999 -9999 -9999 4300 4343 4189 4103 3969 3958 4062 4042 4066 4462 4402 4126 4131 4131 4605 4436 -9999 -9999 -9999 -9999 -9999 -9999 -9999 -9999 -9999 -9999 -9999 -9999 -9999 -9999 -9999 -9999 -9999 -9999 -9999 -9999 -9999 -9999 -9999 -9999 -9999 -9999 -9999 -9999 -9999 -9999 -9999 -9999 -9999 -9999 -9999 -9999 -9999 -9999 -9999 -9999 -9999 -9999 -9999 -9999 -9999 -9999 -9999 -9999 -9999 -9999 -9999 -9999 -9999 -9999 -9999 -9999 -9999 -9999 -9999 -9999 -9999 -9999 -9999 -9999 -9999 -9999 -9999 -9999 -9999 -9999 -9999 -9999 -9999 -9999 -9999 -9999 -9999 -9999 -9999 -9999 -9999 -9999 -9999 -9999 -9999 -9999 -9999 -9999 -9999 -9999 -9999 -9999 -9999 -9999 -9999 -9999 -9999 -9999 -9999 -9999 3605 3346 3520 3297 3258 3098 3192 3435 3548 3548 3299 3299 3755 3755 3299 3299 3555 2769 2860 3363 3804 3337 3257 2900 2900 2778 2954 3126 3126 2815 2488 2209 2209 1859 2111 3132 2939 3302 3182 3541 2724 2511 2297 2297 2192 2133 2005 2098 2395 3255 2321 2321 1968 1494 2019 1330 1327 1269 2140 1873 1045 1045 1037 1162 1130 1197 1388 1457 1399 1513 1513 1634 1686 1686 1795 1970 1743 1625 1625 1508 1413 1533 1312 1284 1253 1343 1336 1294 1585 1433 1215 1165 1322 1175 1442 1233 1122 1122 1103 1078 1078 1012 1054 1054 1003 1003 1139 844 765 765 696 727 675 698 1136 874 852 814 814 923 923 952 1128 -9999 -9999 -9999 -9999 -9999 -9999 -9999 -9999 -9999 -9999 -9999 -9999 -9999 -9999 -9999 -9999 -9999 -9999 -9999 -9999 -9999 -9999 -9999 -9999 -9999 -9999 -9999 -9999 -9999 -9999 -9999 -9999 -9999 -9999 -9999 -9999 -9999 -9999 -9999 -9999 -9999 -9999 -9999 -9999 -9999 -9999 -9999 -9999 -9999 -9999 -9999 -9999 -9999
4751 4868 4799 4846 4747 4746 4781 4804 -9999 -9999 -9999 -9999 -9999 -9999 -9999 -9999 -9999 -9999 -9999 -9999 -9999 -9999 -9999 -9999 -9999 -9999 -9999 -9999 -9999 -9999 -9999 -9999 -9999 -9999 -9999 -9999 -9999 -9999 -9999 -9999 -9999 -9999 -9999 -9999 -9999 -9999 -9999 -9999 5255 5255 5109 4905 5225 4871 4927 5003 5134 4864 4566 4600 4731 4638 4593 4853 4940 4932 4784 4842 4842 4673 4656 4656 4650 4500 4472 4439 4439 4505 4661 4736 4509 4446 4446 4422 4443 4702 4610 4638 4615 4907 4785 4724 4481 4554 4820 4135 4123 4133 4133 4712 4890 4393 4393 4022 4661 3780 3729 3720 3720 4613 4100 4326 4853 4853 4114 4271 3882 3775 4158 3986 4563 3878 3878 4933 4933 4402 4402 4415 4330 4258 4294 4294 4333 4255 4228 4234 4198 4187 4188 4379 4436 4400 4400 4434 4233 4257 4257 4154 4136 4331 4319 4319 4245 4653 4358 4298 4208 4193 4151 4151 4171 4200 4226 4262 4301 4316 4338 4435 4564 4557 4581 4630 4651 4651 4571 4649 4480 4518 4399 4360 4390 4449 4498 4498 4562 4497 4567 4724 -9999 -9999 -9999 -9999 -9999 -9999 -9999 -9999 -9999 -9999 -9999 -9999 -9999 -9999 -9999 -9999 -9999 -9999 -9999 -9999 -9999 -9999 -9999 -9999 -9999 -9999 -9999 -9999 -9999 -9999 -9999 -9999 -9999 -9999 -9999 -9999 -9999 -9999 -9999 -9999 -9999 -9999 -9999 -9999 -9999 -9999 -9999 -9999 -9999 -9999 -9999 -9999 -9999 -9999 -9999 -9999 -9999 -9999 -9999 -9999 -9999 -9999 -9999 4300 4343 4452 4540 3969 3958 3921 4042 4153 4258 4402 4025 4131 4153 4146 4436 4330 -9999 -9999 -9999 -9999 -9999 -9999 -9999 -9999 -9999 -9999 -9999 -9999 -9999 -9999 -9999 -9999 -9999 -9999 -9999 -9999 -9999 -9999 -9999 -9999 -9999 -9999 -9999 -9999 -9999 -9999 -9999 -9999 -9999 -9999 -9999 -9999 -9999 -9999 -9999 -9999 -9999 -9999 -9999 -9999 -9999 -9999 -9999 -9999 -9999 -9999 -9999 -9999 -9999 -9999 -9999 -9999 -9999 -9999 -9999 -9999 -9999 -9999 -9999 -9999 -9999 -9999 -9999 -9999 -9999 -9999 -9999 -9999 -9999 -9999 -9999 -9999 -9999 -9999 -9999 -9999 -9999 -9999 -9999 -9999 -9999 -9999 -9999 -9999 -9999 -9999 -9999 -9999 -9999 -9999 -9999 -9999 -9999 -9999 -9999 3625 3625 3531 3609 3253 3364 3192 3257 3523 3523 3458 3458 4112 3613 3075 3056 3056 2860 2860 3267 3742 3337 3551 3551 3503 3397 3241 3424 3424 2961 2267 2209 2616 2227 1988 2497 2605 2974 3182 3477 2724 2658 2532 2532 2575 2409 2016 1948 2055 2490 2339 2339 2278 1626 1824 1330 1327 1248 1347 1183 1181 1050 1037 1019 1018 1020 1179 1006 1039 1554 1833 1477 1541 1515 1709 2033 1743 1960 1960 1593 1774 1412 1412 1300 1300 1628 1510 1294 1294 1343 1245 1206 1322 1301 1442 1243 1122 1364 1103 1043 1012 1012 1054 1054 891 891 844 844 978 978 826 826 665 665 842 874 788 788 816 821 955 952 1128 -9999 -9999 -9999 -9999 -9999 -9999 -9999 -9999 -9999 -9999 -9999 -9999 -9999 -9999 -9999 -9999 -9999 -9999 -9999 -9999 -9999 -9999 -9999 -9999 -9999 -9999 -9999 -9999 -9999 -9999 -9999 -9999 -9999 -9999 -9999 -9999 -9999 -9999 -9999 -9999 -9999 -9999 -9999 -9999 -9999 -9999 -9999 -9999 -9999 -9999 -9999 -9999 -9999
5187 4891 4963 4895 4804 4827 4823 4834 -9999 -9999 -9999 -9999 -9999 -9999 -9999 -9999 -9999 -9999 -9999 -9999 -9999 -9999 -9999 -9999 -9999 -9999 -9999 -9999 -9999 -9999 -9999 -9999 -9999 -9999 -9999 -9999 -9999 -9999 -9999 -9999 -9999 -9999 -9999 -9999 -9999 -9999 -9999 -9999 -9999 -9999 -9999 -9999 -9999 4927 4927 -9999 -9999 4858 4675 4713 4943 5030 5030 4814 4692 4936 4969 4969 4660 4922 4656 4656 4524 4669 4472 4439 4476 4491 4494 4626 4626 4537 4446 4453 4745 4517 4585 4597 4795 4728 4581 4637 4531 4531 4137 4135 4675 4621 4742 4398 4398 4550 4198 4195 4195 3924 3729 3810 3720 3685 4033 4033 4877 4299 4605 4271 3785 3742 4168 3853 3777 3785 3866 4090 4035 4035 4351 4544 4354 4344 4249 4294 4232 4219 4220 4201 4191 4183 4181 4176 4169 4163 4283 4161 4156 4171 4257 4154 4424 4331 4315 4114 4338 4338 4214 4392 4383 4315 4296 4127 4171 4171 4202 4242 4242 4312 4291 4364 4364 4380 4430 4556 4750 4517 4809 4809 4530 4415 4451 4326 4522 4416 4457 4498 4471 4497 4595 4612 -9999 -9999 -9999 -9999 -9999 -9999 -9999 -9999 -9999 -9999 -9999 -9999 -9999 -9999 -9999 -9999 -9999 -9999 -9999 -9999 -9999 -9999 -9999 -9999 -9999 -9999 -9999 -9999 -9999 -9999 -9999 -9999 -9999 -9999 -9999 -9999 -9999 -9999 -9999 -9999 -9999 -9999 -9999 -9999 -9999 -9999 -9999 -9999 -9999 -9999 -9999 -9999 -9999 -9999 -9999 -9999 -9999 -9999 -9999 -9999 -9999 -9999 -9999 4467 4329 4329 4165 4083 4083 3889 3889 3975 4258 4021 4232 4177 4177 4148 4148 4386 4234 4234 -9999 -9999 -9999 -9999 -9999 -9999 -9999 -9999 -9999 -9999 -9999 -9999 -9999 -9999 -9999 -9999 -9999 -9999 -9999 -9999 -9999 -9999 -9999 -9999 -9999 -9999 -9999 -9999 -9999 -9999 -9999 -9999 -9999 -9999 -9999 -9999 -9999 -9999 -9999 -9999 -9999 -9999 -9999 -9999 -9999 -9999 -9999 -9999 -9999 -9999 -9999 -9999 -9999 -9999 -9999 -9999 -9999 -9999 -9999 -9999 -9999 -9999 -9999 -9999 -9999 -9999 -9999 -9999 -9999 -9999 -9999 -9999 -9999 -9999 -9999 -9999 -9999 -9999 -9999 -9999 -9999 -9999 -9999 -9999 -9999 -9999 -9999 -9999 -9999 -9999 -9999 -9999 -9999 -9999 -9999 -9999 -9999 3907 3498 3498 3310 3310 3215 3257 3393 3751 3577 3562 3562 3625 3158 3075 3075 3381 2913 2913 3739 3343 3174 3450 4025 4286 3168 2995 2895 3424 2466 2267 2531 2317 1801 1988 3205 2618 3567 2688 2863 2477 2805 2696 2723 2134 2114 1819 1948 2055 2523 3158 2929 2206 2085 1824 1477 1477 1464 1347 1183 1445 1125 1285 1127 1119 1119 1179 1001 1202 994 1429 1200 1200 1421 1709 1700 1700 2111 2189 1965 1960 1703 1703 1460 1363 1717 1717 1807 1586 1418 1418 1592 1592 1415 1415 1291 1460 1525 1328 1182 1182 1250 1242 970 977 977 1197 1197 926 926 806 1064 707 658 770 843 796 791 736 813 1036 1036 1148 -9999 -9999 -9999 -9999 -9999 -9999 -9999 -9999 -9999 -9999 -9999 -9999 -9999 -9999 -9999 -9999 -9999 -9999 -9999 -9999 -9999 -9999 -9999 -9999 -9999 -9999 -9999 -9999 -9999 -9999 -9999 -9999 -9999 -9999 -9999 -9999 -9999 -9999 -9999 -9999 -9999 -9999 -9999 -9999 -9999 -9999 -9999 -9999 -9999 -9999 -9999 -9999 -9999
4887 4877 4963 4943 4882 4862 4823 -9999 -9999 -9999 -9999 -9999 -9999 -9999 -9999 -9999 -9999 -9999 -9999 -9999 -9999 -9999 -9999 -9999 -9999 -9999 -9999 -9999 -9999 -9999 -9999 -9999 -9999 -9999 -9999 -9999 -9999 -9999 -9999 -9999 -9999 -9999 -9999 -9999 -9999 -9999 -9999 -9999 -9999 -9999 -9999 -9999 -9999 -9999 -9999 -9999 -9999 4858 4748 4668 4673 4945 4822 4663 4692 4859 5029 4767 4818 4748 4871 4630 4655 4655 4770 4505 4530 4491 4494 4605 4584 4592 4592 4627 4600 4676 4586 4837 4795 4795 4482 4395 4533 4533 4287 4364 4747 4446 4742 4398 4398 4555 4878 4195 4195 4050 4050 3991 3687 3687 3670 4033 3939 3939 4392 4326 3742 3742 4061 3754 3777 3962 3866 3859 4160 4229 4229 4337 4338 4324 4259 4259 4221 4221 4206 4206 4193 4183 4181 4175 4169 4163 4161 4157 4156 4152 4152 4228 4340 4515 4115 4115 4338 4338 4214 4626 4383 4304 4120 4219 4264 4185 4210 4219 4238 4263 4263 4279 4364 4349 4355 4556 4463 4516 4599 4809 4460 4451 4307 4307 4355 4396 4534 4498 4558 4586 4595 4612 -9999 -9999 -9999 -9999 -9999 -9999 -9999 -9999 -9999 -9999 -9999 -9999 -9999 -9999 -9999 -9999 -9999 -9999 -9999 -9999 -9999 -9999 -9999 -9999 -9999 -9999 -9999 -9999 -9999 -9999 -9999 -9999 -9999 -9999 -9999 -9999 -9999 -9999 -9999 -9999 -9999 -9999 -9999 -9999 -9999 -9999 -9999 -9999 -9999 -9999 -9999 -9999 -9999 -9999 -9999 -9999 -9999 -9999 -9999 4214 4214 4302 4368 4334 4316 4329 4107 4099 4099 3871 3871 3975 3916 3916 4240 4240 4214 4056 4359 4359 4097 4097 -9999 -9999 -9999 -9999 -9999 -9999 -9999 -9999 -9999 -9999 -9999 -9999 -9999 -9999 -9999 -9999 -9999 -9999 -9999 -9999 -9999 -9999 -9999 -9999 -9999 -9999 -9999 -9999 -9999 -9999 -9999 -9999 -9999 -9999 -9999 -9999 -9999 -9999 -9999 -9999 -9999 -9999 -9999 -9999 -9999 -9999 -9999 -9999 -9999 -9999 -9999 -9999 -9999 -9999 -9999 -9999 -9999 -9999 -9999 -9999 -9999 -9999 -9999 -9999 -9999 -9999 -9999 -9999 -9999 -9999 -9999 -9999 -9999 -9999 -9999 -9999 -9999 -9999 -9999 -9999 -9999 -9999 -9999 -9999 -9999 -9999 -9999 -9999 -9999 -9999 -9999 -9999 -9999 -9999 -9999 -9999 -9999 3728 3498 3498 3403 3498 3203 3393 3393 3751 3585 3650 3626 3625 3158 3158 3831 3658 3095 3009 3692 3343 2968 3108 2958 2958 3908 3150 3063 2851 2672 2441 2495 1681 1681 1734 2119 1960 1960 2230 2230 2359 2672 2847 2723 2134 2114 1810 2128 2114 2523 3158 2389 2206 2348 1624 1534 1634 1527 2281 2155 2333 1860 1470 1470 1480 1827 1584 1202 993 991 991 996 1029 1255 1494 1431 1495 2079 2189 1965 1743 1703 1703 1558 1896 1699 1615 1807 1391 1531 1451 1431 1329 1336 1415 1274 1274 1410 1328 1222 1222 1252 1139 1136 1133 1116 966 958 1066 1066 984 770 723 939 670 794 741 737 737 813 996 996 1024 -9999 -9999 -9999 -9999 -9999 -9999 -9999 -9999 -9999 -9999 -9999 -9999 -9999 -9999 -9999 -9999 -9999 -9999 -9999 -9999 -9999 -9999 -9999 -9999 -9999 -9999 -9999 -9999 -9999 -9999 -9999 -9999 -9999 -9999 -9999 -9999 -9999 -9999 -9999 -9999 -9999 -9999 -9999 -9999 -9999 -9999 -9999 -9999 -9999 -9999 -9999 -9999 -9999
4887 5140 5033 5033 4967 -9999 -9999 -9999 -9999 -9999 -9999 -9999 -9999 -9999 -9999 -9999 -9999 -9999 -9999 -9999 -9999 -9999 -9999 -9999 -9999 -9999 -9999 -9999 -9999 -9999 -9999 -9999 -9999 -9999 -9999 -9999 -9999 -9999 -9999 -9999 -9999 -9999 -9999 -9999 -9999 -9999 -9999 -9999 -9999 -9999 -9999 -9999 -9999 -9999 -9999 -9999 -9999 -9999 -9999 -9999 -9999 -9999 4971 4865 5123 5123 5146 4918 4818 4818 4755 4956 4688 4688 4524 4645 4588 4516 4516 4597 4584 4584 4576 4616 4627 4701 4849 4744 4837 4590 4510 4596 4751 4751 4175 4348 4270 4503 4503 4850 4608 4820 4820 4437 4437 4790 4909 3862 3687 4036 3670 3659 3959 3795 4724 3656 3633 3632 4061 3805 4083 4204 3930 4105 4086 4041 4098 4341 4338 4338 4288 4228 4221 4221 4206 4206 4211 4193 4181 4181 4200 4295 4234 4255 4355 4217 4217 4303 4303 4145 4376 4167 4089 4089 4469 4469 4333 4184 4165 4583 4315 4238 4396 4222 4238 4240 4240 4279 4242 4310 4273 4485 4400 4455 4587 4467 4383 4679 4447 4282 4415 4434 4485 4556 4612 4809 4809 4643 4662 -9999 -9999 -9999 -9999 -9999 4710 4631 4693 4693 4787 4787 4933 -9999 -9999 -9999 -9999 -9999 -9999 -9999 -9999 -9999 -9999 -9999 -9999 -9999 -9999 -9999 -9999 -9999 -9999 -9999 -9999 -9999 -9999 -9999 -9999 -9999 -9999 -9999 -9999 -9999 -9999 -9999 -9999 -9999 -9999 -9999 -9999 -9999 -9999 -9999 -9999 -9999 -9999 -9999 -9999 -9999 4235 4214 4174 4342 4334 4453 4272 4107 4059 4194 4219 3871 4101 3852 3890 4173 4014 4240 4056 4056 4178 4359 4162 4074 4129 -9999 -9999 -9999 -9999 -9999 -9999 -9999 -9999 -9999 -9999 -9999 -9999 -9999 -9999 -9999 -9999 -9999 -9999 -9999 -9999 -9999 -9999 -9999 -9999 -9999 -9999 -9999 -9999 -9999 -9999 -9999 -9999 -9999 -9999 -9999 -9999 -9999 -9999 -9999 -9999 -9999 -9999 -9999 -9999 -9999 -9999 -9999 -9999 -9999 -9999 -9999 -9999 -9999 -9999 -9999 -9999 -9999 -9999 -9999 -9999 -9999 -9999 -9999 -9999 -9999 -9999 -9999 -9999 -9999 -9999 -9999 -9999 -9999 -9999 -9999 -9999 -9999 -9999 -9999 -9999 -9999 -9999 -9999 -9999 -9999 -9999 -9999 -9999 -9999 -9999 -9999 -9999 -9999 -9999 -9999 -9999 3721 3564 3792 3573 3573 3211 3412 3682 3682 3686 3686 3960 3626 3568 4064 3524 3524 3104 3065 3698 2827 2668 2498 2516 2461 2878 2598 2187 2187 1905 1905 1774 1681 1618 1596 1798 1527 1527 2909 2230 1923 2194 3314 2847 2481 2168 1866 1866 2465 2638 2975 2572 2175 1767 1973 1580 1638 1914 2077 2881 2333 1877 2108 1909 2384 1466 1432 1288 1079 1866 991 989 961 953 983 1117 1495 1407 1594 1630 1899 1851 1804 1804 1644 1773 1886 1886 1528 1433 1433 1495 1289 1262 1226 1269 1274 1253 1203 1185 1179 1375 1081 1081 1099 1151 1081 991 1071 882 772 711 851 894 670 649 741 765 686 906 996 1203 1120 -9999 -9999 -9999 -9999 -9999 -9999 -9999 -9999 -9999 -9999 -9999 -9999 -9999 -9999 -9999 -9999 -9999 -9999 -9999 -9999 -9999 -9999 -9999 -9999 -9999 -9999 -9999 -9999 -9999 -9999 -9999 -9999 -9999 -9999 -9999 -9999 -9999 -9999 -9999 -9999 -9999 -9999 -9999 -9999 -9999 -9999 -9999 -9999 -9999 -9999 -9999 -9999 -9999
-9999 -9999 -9999 -9999 -9999 -9999 -9999 -9999 -9999 -9999 -9999 -9999 -9999 -9999 -9999 -9999 -9999 -9999 -9999 -9999 -9999 -9999 -9999 -9999 -9999 -9999 -9999 -9999 -9999 -9999 -9999 -9999 -9999 -9999 -9999 -9999 -9999 -9999 -9999 -9999 -9999 -9999 -9999 -9999 -9999 -9999 -9999 -9999 -9999 -9999 -9999 -9999 -9999 -9999 -9999 -9999 -9999 -9999 -9999 -9999 -9999 -9999 -9999 -9999 -9999 -9999 -9999 -9999 4934 4761 4718 4718 4633 4580 4613 4723 4720 4785 4642 4629 4591 4576 4576 4741 4676 4684 4849 4696 4590 4347 4510 4303 4751 4751 4662 4182 4609 4635 4503 4825 4949 4722 4864 4564 4804 4790 4167 3851 4451 4442 3664 3664 3898 3898 3656 4623 4039 3616 3616 3937 4083 4083 4122 4344 4344 4111 4193 4528 4473 4348 4588 4446 4324 4466 4317 4317 4218 4214 4214 4244 4257 4251 4373 4255 4334 4243 4311 4400 4237 4352 4372 4376 4089 4081 4081 4333 4166 4084 4104 4387 4303 4393 4396 4288 4267 4243 4218 4202 4209 4209 4273 4290 4304 4354 4609 4410 4506 4357 4270 4270 4451 4451 4714 4565 4776 4778 4753 4702 4702 -9999 -9999 4857 4857 4725 4650 4602 4587 4693 4585 4638 4822 4709 -9999 -9999 -9999 -9999 -9999 -9999 -9999 -9999 -9999 -9999 -9999 -9999 -9999 -9999 -9999 -9999 -9999 -9999 -9999 -9999 -9999 -9999 -9999 -9999 -9999 -9999 -9999 -9999 -9999 -9999 -9999 -9999 -9999 -9999 -9999 -9999 -9999 -9999 -9999 -9999 -9999 -9999 -9999 -9999 4211 4235 4167 4158 4158 4201 4201 4401 4059 4039 4422 4409 4117 3816 3780 3907 3893 3808 3949 3828 3944 3836 3924 4124 4159 4351 4433 -9999 -9999 -9999 -9999 -9999 -9999 -9999 -9999 -9999 -9999 -9999 -9999 -9999 -9999 -9999 -9999 -9999 -9999 -9999 -9999 -9999 -9999 -9999 -9999 -9999 -9999 -9999 -9999 -9999 -9999 -9999 -9999 -9999 -9999 -9999 -9999 -9999 -9999 -9999 -9999 -9999 -9999 -9999 -9999 -9999 -9999 -9999 -9999 -9999 -9999 -9999 -9999 -9999 -9999 -9999 -9999 -9999 -9999 -9999 -9999 -9999 -9999 -9999 -9999 -9999 -9999 -9999 -9999 -9999 -9999 -9999 -9999 -9999 -9999 -9999 -9999 -9999 -9999 -9999 -9999 -9999 -9999 -9999 -9999 -9999 -9999 -9999 -9999 -9999 -9999 -9999 -9999 -9999 -9999 3721 3701 3794 3746 3746 3273 3434 3444 3444 3546 3618 3969 3969 3417 3279 3279 3128 3103 3143 3522 2827 2433 2270 2448 2126 2121 2346 2187 1903 1903 1905 2157 2157 2645 1937 1937 1511 1511 1956 1956 1718 1938 3314 3314 2031 1884 1839 2547 2547 2380 2671 2671 2236 2236 2425 1970 2010 2425 2386 2272 2523 2770 2487 1915 1915 1740 2074 1456 1818 1657 1932 1317 1533 983 983 1260 992 1072 1257 1290 1426 2332 1874 1715 1705 1834 1780 1448 1418 1387 1289 1244 1244 1262 1226 1199 1199 1414 1276 1384 1661 1249 1081 1059 1140 1082 1080 991 991 1083 956 956 1130 1147 1021 780 678 784 778 779 906 1214 -9999 -9999 -9999 -9999 -9999 -9999 -9999 -9999 -9999 -9999 -9999 -9999 -9999 -9999 -9999 -9999 -9999 -9999 -9999 -9999 -9999 -9999 -9999 -9999 -9999 -9999 -9999 -9999 -9999 -9999 -9999 -9999 -9999 -9999 -9999 -9999 -9999 -9999 -9999 -9999 -9999 -9999 -9999 -9999 -9999 -9999 -9999 -9999 -9999 -9999 -9999 -9999 -9999 -9999
-9999 -9999 -9999 -9999 -9999 -9999 -9999 -9999 -9999 -9999 -9999 -9999 -9999 -9999 -9999 -9999 -9999 -9999 -9999 -9999 -9999 -9999 -9999 -9999 -9999 -9999 -9999 -9999 -9999 -9999 -9999 -9999 -9999 -9999 -9999 -9999 -9999 -9999 -9999 -9999 -9999 -9999 -9999 -9999 -9999 -9999 -9999 -9999 -9999 -9999 -9999 -9999 -9999 -9999 -9999 -9999 -9999 -9999 -9999 -9999 -9999 -9999 -9999 -9999 -9999 -9999 -9999 -9999 4996 4761 4718 4718 4691 4687 4613 4735 4743 4684 4580 4665 4593 4576 4573 4572 4899 4684 4745 4723 4875 4347 4355 4355 4245 4549 4182 4182 4609 4635 4855 4790 4790 4722 4473 4217 4217 4095 3983 4142 4733 3995 3925 4407 3952 4528 4528 4295 4605 3687 3609 3645 3731 3934 3860 4376 4713 4108 4621 4677 4508 4460 4588 4446 4367 4466 4317 4278 4390 4239 4318 4257 4257 4386 4373 4298 4298 4480 4311 4311 4318 4380 4372 4733 4121 4076 4076 4076 4075 4084 4084 4207 4324 4213 4490 4312 4379 4243 4195 4170 4170 4184 4197 4243 4274 4295 4316 4381 4389 4499 4403 4232 4295 4451 4399 4611 4611 4594 4777 4777 5029 -9999 -9999 4697 4857 4680 4691 4682 4587 4547 4547 4721 4822 4911 4964 -9999 -9999 -9999 -9999 -9999 -9999 -9999 -9999 -9999 -9999 -9999 -9999 -9999 -9999 -9999 -9999 -9999 -9999 -9999 -9999 -9999 -9999 -9999 -9999 -9999 -9999 -9999 -9999 -9999 -9999 -9999 -9999 -9999 -9999 -9999 -9999 -9999 -9999 -9999 -9999 -9999 4180 4169 4172 4092 4226 4158 4158 4290 4297 4297 4273 3984 3984 4133 4384 3874 3780 3907 3946 3757 3798 3828 3828 3836 3906 3964 4066 4351 4250 -9999 -9999 -9999 -9999 -9999 -9999 -9999 -9999 -9999 -9999 -9999 -9999 -9999 -9999 -9999 -9999 -9999 -9999 -9999 -9999 -9999 -9999 -9999 -9999 -9999 -9999 -9999 -9999 -9999 -9999 -9999 -9999 -9999 -9999 -9999 -9999 -9999 -9999 -9999 -9999 -9999 -9999 -9999 -9999 -9999 -9999 -9999 -9999 -9999 -9999 -9999 -9999 -9999 -9999 -9999 -9999 -9999 -9999 -9999 -9999 -9999 -9999 -9999 -9999 -9999 -9999 -9999 -9999 -9999 -9999 -9999 -9999 -9999 -9999 -9999 -9999 -9999 -9999 -9999 -9999 -9999 -9999 -9999 -9999 -9999 -9999 -9999 -9999 -9999 -9999 -9999 -9999 -9999 -9999 3831 3701 3794 3666 3952 3364 3375 3444 3444 3648 3648 3762 3969 3503 3587 3279 3456 3184 3338 3444 2953 2433 2433 2448 2126 2088 2651 2651 1988 2215 2215 2998 2983 2645 2255 2613 1875 1875 1956 1956 1420 1816 2397 2397 2031 1820 1546 1546 2079 2122 2671 2671 2693 2465 2077 1970 2182 2031 2279 2279 1932 1932 2487 1915 1915 2222 2074 2074 2529 2589 2378 1650 1330 1108 1108 1260 992 1072 1287 1348 1774 1559 1739 1946 1919 1834 1780 1475 1727 1387 1720 1244 1244 1313 1313 1127 1089 1097 1097 1241 1217 1263 1116 1116 1140 1082 1028 1133 1144 1166 956 853 825 1009 897 677 677 817 760 815 826 955 1000 1199 -9999 -9999 -9999 -9999 -9999 -9999 -9999 -9999 -9999 -9999 -9999 -9999 -9999 -9999 -9999 -9999 -9999 -9999 -9999 -9999 -9999 -9999 -9999 -9999 -9999 -9999 -9999 -9999 -9999 -9999 -9999 -9999 -9999 -9999 -9999 -9999 -9999 -9999 -9999 -9999 -9999 -9999 -9999 -9999 -9999 -9999 -9999 -9999 -9999 -9999 -9999 -9999
-9999 -9999 -9999 -9999 -9999 -9999 -9999 -9999 -9999 -9999 -9999 -9999 -9999 -9999 -9999 -9999 -9999 -9999 -9999 -9999 -9999 -9999 -9999 -9999 -9999 -9999 -9999 -9999 -9999 -9999 -9999 -9999 -9999 -9999 -9999 -9999 -9999 -9999 -9999 -9999 -9999 -9999 -9999 -9999 -9999 -9999 -9999 -9999 -9999 -9999 -9999 -9999 -9999 -9999 -9999 -9999 -9999 -9999 -9999 -9999 -9999 -9999 -9999 -9999 -9999 -9999 -9999 -9999 -9999 5124 4788 4788 4894 4687 4605 4742 4797 4723 4675 4683 4683 4696 4572 4551 4556 4600 4576 4750 4705 4644 4457 4629 4245 4200 4194 4194 4672 4357 4740 4573 4790 4507 4646 4217 4217 4217 4549 4257 4240 4317 4772 4407 3925 3925 4053 4053 3790 3861 3609 3596 3692 3934 3842 3783 4108 3961 4122 4260 4770 4491 4491 4516 4428 4428 4615 4391 4331 4384 4358 4448 4448 4353 4386 4410 4369 4494 4435 4488 4650 4380 4272 4278 4159 4121 4064 4067 4072 4072 4054 4054 4192 4121 4518 4238 4379 4301 4332 4170 4170 4168 4209 4226 4260 4272 4264 4315 4452 4292 4229 4229 4286 4303 4390 4489 4611 4862 4862 4898 4661 4688 4723 4755 4608 4608 4782 4782 4709 4768 4512 4512 4584 4635 4663 4904 4602 -9999 -9999 -9999 -9999 -9999 -9999 -9999 -9999 -9999 -9999 -9999 -9999 -9999 -9999 -9999 -9999 -9999 -9999 -9999 -9999 -9999 -9999 -9999 -9999 -9999 -9999 -9999 -9999 -9999 -9999 -9999 -9999 -9999 -9999 -9999 4499 4499 -9999 -9999 4150 4150 4188 4060 4086 4265 4134 4079 4093 4331 4075 4057 3926 3948 4069 4103 3914 3914 3728 3728 3831 3831 3951 4024 4162 4163 3953 3956 4022 4001 -9999 -9999 -9999 -9999 -9999 -9999 -9999 -9999 -9999 -9999 -9999 -9999 -9999 -9999 -9999 -9999 -9999 -9999 -9999 -9999 -9999 -9999 -9999 -9999 -9999 -9999 -9999 -9999 -9999 -9999 -9999 -9999 -9999 -9999 -9999 -9999 -9999 -9999 -9999 -9999 -9999 -9999 -9999 -9999 -9999 -9999 -9999 -9999 -9999 -9999 -9999 -9999 -9999 -9999 -9999 -9999 -9999 -9999 -9999 -9999 -9999 -9999 -9999 -9999 -9999 -9999 -9999 -9999 -9999 -9999 -9999 -9999 -9999 -9999 -9999 -9999 -9999 -9999 -9999 -9999 -9999 -9999 -9999 -9999 -9999 -9999 -9999 -9999 -9999 -9999 -9999 -9999 -9999 -9999 -9999 4010 3666 3537 3364 3571 3700 3700 3728 4147 3762 3563 3325 3263 3709 3382 3815 3294 3546 2810 2821 2606 3253 2573 2355 2099 2099 2069 2387 2850 3039 3135 2658 2435 2435 1875 1875 2235 2235 1388 1388 2201 2201 2077 1767 1543 1543 1726 1726 2206 2206 2588 2204 2242 2242 2532 2018 2008 2008 1774 1774 2242 1896 1896 2318 2358 2248 1958 1403 1403 1601 1330 1330 1452 925 1066 1287 1287 1356 1515 1559 1935 1731 1731 1798 1798 1559 1727 1436 1504 1646 1264 1313 1313 1127 1089 1097 1097 1012 1012 996 996 1119 1167 1164 913 1432 1071 1223 936 1036 804 824 652 646 646 817 931 826 826 861 861 1304 1014 1101 -9999 -9999 -9999 -9999 -9999 -9999 -9999 -9999 -9999 -9999 -9999 -9999 -9999 -9999 -9999 -9999 -9999 -9999 -9999 -9999 -9999 -9999 -9999 -9999 -9999 -9999 -9999 -9999 -9999 -9999 -9999 -9999 -9999 -9999 -9999 -9999 -9999 -9999 -9999 -9999 -9999 -9999 -9999 -9999 -9999 -9999 -9999 -9999 -9999 -9999
-9999 -9999 -9999 -9999 -9999 -9999 -9999 -9999 -9999 -9999 -9999 -9999 -9999 -9999 -9999 -9999 -9999 -9999 -9999 -9999 -9999 -9999 -9999 -9999 -9999 -9999 -9999 -9999 -9999 -9999 -9999 -9999 -9999 -9999 -9999 -9999 -9999 -9999 -9999 -9999 -9999 -9999 -9999 -9999 -9999 -9999 -9999 -9999 -9999 -9999 -9999 -9999 -9999 -9999 -9999 -9999 -9999 -9999 -9999 -9999 -9999 -9999 -9999 -9999 -9999 -9999 -9999 -9999 -9999 -9999 -9999 -9999 4894 4894 4673 4742 4764 4756 4707 4683 4683 4699 4598 4556 4556 4840 4529 4607 4705 4749 4833 4629 4282 4200 4194 4194 4210 4446 4446 4638 4584 4575 4575 4452 4217 4803 4549 4257 4278 4710 4772 4278 4865 4672 4277 4106 3917 3861 3692 3596 3901 4064 4064 3953 3853 3961 4323 4260 4091 4288 4285 4388 4391 4391 4391 4391 4332 4332 4351 4352 4448 4367 4334 4375 4375 4494 4381 4420 4530 4591 4272 4278 4167 4110 4063 4063 4063 4063 4044 4040 4046 4121 4201 4238 4238 4560 4334 4109 4194 4168 4209 4232 4259 4259 4283 4283 4269 4400 4422 4205 4674 4674 4755 4489 4476 4574 4726 4977 4611 4688 4803 4687 4683 4592 4592 4738 4582 4583 4512 4512 4487 4560 4641 4548 4602 -9999 -9999 -9999 -9999 -9999 -9999 -9999 -9999 -9999 -9999 -9999 -9999 -9999 -9999 -9999 -9999 -9999 -9999 -9999 -9999 -9999 -9999 -9999 -9999 -9999 -9999 -9999 4454 4454 4528 -9999 -9999 -9999 -9999 4394 4414 4414 4364 4314 4184 4150 4112 4047 4275 4364 4117 4058 4198 4331 4170 4121 4048 3948 3915 4103 3914 3914 3728 3728 3831 3831 3840 3938 4031 4163 3953 3989 3963 4001 -9999 -9999 -9999 -9999 -9999 -9999 -9999 -9999 -9999 -9999 -9999 -9999 -9999 -9999 -9999 -9999 -9999 -9999 -9999 -9999 -9999 -9999 -9999 -9999 -9999 -9999 -9999 -9999 -9999 -9999 -9999 -9999 -9999 -9999 -9999 -9999 -9999 -9999 -9999 -9999 -9999 -9999 -9999 -9999 -9999 -9999 -9999 -9999 -9999 -9999 -9999 -9999 -9999 -9999 -9999 -9999 -9999 -9999 -9999 -9999 -9999 -9999 -9999 -9999 -9999 -9999 -9999 -9999 -9999 -9999 -9999 -9999 -9999 -9999 -9999 -9999 -9999 -9999 -9999 -9999 -9999 -9999 -9999 -9999 -9999 -9999 -9999 -9999 -9999 -9999 -9999 -9999 -9999 -9999 -9999 3950 3950 3496 3409 3475 3862 4063 3673 3662 3830 3492 3345 3664 3664 3382 3892 3995 3576 2810 2821 3517 3253 2786 2492 2459 2767 2200 2344 3362 3682 3282 2658 3121 2435 2079 2589 2458 2458 1388 1388 2201 2201 2077 1767 1543 1463 1661 1726 2206 2206 2588 3516 2902 2378 2301 1779 1689 1689 1774 1525 1806 1806 1585 1585 2102 2102 2195 1403 1403 1335 1196 929 1165 916 1066 1292 1634 1608 1719 2022 2022 1665 1731 1761 1761 1559 1436 1436 1504 1678 1678 1565 1565 1497 1497 1580 1580 1376 1128 996 996 1566 1264 1347 1347 878 866 797 797 975 796 656 652 677 1057 1591 1154 1123 1067 1014 1010 998 1014 1101 -9999 -9999 -9999 -9999 -9999 -9999 -9999 -9999 -9999 -9999 -9999 -9999 -9999 -9999 -9999 -9999 -9999 -9999 -9999 -9999 -9999 -9999 -9999 -9999 -9999 -9999 -9999 -9999 -9999 -9999 -9999 -9999 -9999 -9999 -9999 -9999 -9999 -9999 -9999 -9999 -9999 -9999 -9999 -9999 -9999 -9999 -9999 -9999 -9999 -9999
-9999 -9999 -9999 -9999 -9999 -9999 -9999 -9999 -9999 -9999 -9999 -9999 -9999 -9999 -9999 -9999 -9999 -9999 -9999 -9999 -9999 -9999 -9999 -9999 -9999 -9999 -9999 -9999 -9999 -9999 -9999 -9999 -9999 -9999 -9999 -9999 -9999 -9999 -9999 -9999 -9999 -9999 -9999 -9999 -9999 -9999 -9999 -9999 -9999 -9999 -9999 -9999 -9999 -9999 -9999 -9999 -9999 -9999 -9999 -9999 -9999 -9999 -9999 -9999 -9999 -9999 -9999 -9999 -9999 -9999 -9999 -9999 -9999 -9999 -9999 -9999 -9999 -9999 -9999 -9999 -9999 4881 4804 4683 4519 4493 4529 4490 4725 4884 4773 4455 4282 4460 4207 4200 4210 4209 4209 4209 4211 4278 4312 4351 4814 4803 4803 4667 4611 4883 4458 4636 4744 4794 4658 4478 4369 4067 3604 3864 3864 4710 3968 4355 4355 4189 4001 4785 4091 4074 4331 4203 4411 4087 4087 4242 4373 4370 4393 4461 4598 4346 4381 4375 4375 4382 4301 4301 4385 4343 4440 4703 4262 4332 4207 4156 4051 4051 4042 4040 4037 4025 4045 4336 4370 4174 4088 4109 4571 4373 4434 4331 4274 4384 4283 4283 4227 4217 4284 4422 4162 4386 4732 4546 4586 4671 4726 4861 4606 4565 4870 4657 4618 4592 4567 4541 4472 4494 4763 4466 4475 4462 4666 4476 4611 -9999 -9999 -9999 -9999 -9999 -9999 -9999 -9999 -9999 -9999 -9999 -9999 -9999 -9999 -9999 -9999 -9999 -9999 -9999 -9999 -9999 -9999 -9999 -9999 -9999 -9999 -9999 4425 4454 4430 4444 4460 4297 4229 4382 4351 4432 4351 4299 4301 4301 4378 4120 4028 4056 4013 4191 4060 4014 4072 4266 4048 3993 3824 4274 4213 4180 3702 3803 3920 3920 3901 4006 4043 4043 3991 3989 3989 4159 4080 4278 -9999 -9999 4593 4382 4382 4594 4724 -9999 -9999 -9999 -9999 -9999 -9999 -9999 -9999 -9999 -9999 3976 3824 3824 3679 3719 -9999 -9999 -9999 -9999 -9999 -9999 -9999 -9999 -9999 -9999 -9999 -9999 -9999 -9999 -9999 -9999 -9999 -9999 -9999 -9999 -9999 -9999 -9999 -9999 -9999 -9999 -9999 -9999 -9999 -9999 -9999 -9999 -9999 -9999 -9999 -9999 -9999 -9999 -9999 -9999 -9999 -9999 -9999 -9999 -9999 -9999 -9999 -9999 -9999 -9999 -9999 -9999 -9999 -9999 -9999 -9999 -9999 -9999 -9999 -9999 -9999 -9999 -9999 -9999 -9999 -9999 -9999 -9999 -9999 -9999 -9999 3850 3850 3506 3475 3540 3540 3714 3673 3662 3694 3492 3478 3596 3492 3292 3554 3570 3570 2753 2857 3785 3785 2913 2499 2231 2828 2435 2431 2547 2547 2787 3314 3004 2356 3014 3014 2177 1999 2123 1344 2531 2502 2339 1955 1809 1392 1437 2067 2370 3793 3793 2373 2859 2293 2076 2818 1689 1689 1398 1301 1684 1670 1718 1505 1405 1405 1345 1345 1663 942 907 907 1165 2093 1392 1448 1955 1933 1794 1635 1635 1589 1663 1680 1680 2103 2103 1502 1557 1322 1259 1361 1361 1019 1019 1300 1300 1121 1121 1127 953 1639 1298 1467 1001 1127 802 969 699 659 661 656 653 843 1821 1787 1048 1048 1282 1538 -9999 -9999 -9999 -9999 -9999 -9999 -9999 -9999 -9999 -9999 -9999 -9999 -9999 -9999 -9999 -9999 -9999 -9999 -9999 -9999 -9999 -9999 -9999 -9999 -9999 -9999 -9999 -9999 -9999 -9999 -9999 -9999 -9999 -9999 -9999 -9999 -9999 -9999 -9999 -9999 -9999 -9999 -9999 -9999 -9999 -9999 -9999 -9999 -9999 -9999 -9999 -9999 -9999 -9999
-9999 -9999 -9999 -9999 -9999 -9999 -9999 -9999 -9999 -9999 -9999 -9999 -9999 -9999 -9999 -9999 -9999 -9999 -9999 -9999 -9999 -9999 -9999 -9999 -9999 -9999 -9999 -9999 -9999 -9999 -9999 -9999 -9999 -9999 -9999 -9999 -9999 -9999 -9999 -9999 -9999 -9999 -9999 -9999 -9999 -9999 -9999 -9999 -9999 -9999 -9999 -9999 -9999 -9999 -9999 -9999 -9999 -9999 -9999 -9999 -9999 -9999 -9999 -9999 -9999 -9999 -9999 -9999 -9999 -9999 -9999 -9999 -9999 -9999 -9999 -9999 -9999 -9999 -9999 -9999 -9999 -9999 4818 4818 4583 4493 4493 4452 4621 4797 4651 4616 4620 4460 4484 4484 4459 4209 4209 4209 4209 4211 4211 4351 4448 4601 4639 4949 4866 4458 4468 4461 4744 4794 4517 4518 4369 3708 3604 3635 3864 4066 4128 4355 4355 4304 4058 4292 4352 4302 4610 4203 3998 3998 4087 4242 4346 4435 4517 4523 4412 4332 4320 4317 4329 4373 4312 4301 4253 4253 4263 4440 4315 4332 4207 4207 4061 4054 4042 4042 4028 4025 4025 4020 4015 4080 4080 4168 4571 4564 4452 4358 4350 4384 4333 4300 4227 4214 4209 4148 4148 4401 4732 4532 4442 4442 4699 4703 4569 4553 4882 4657 4611 4582 4532 4519 4459 4470 4453 4453 4433 4433 4455 4418 4492 4439 4470 -9999 -9999 -9999 -9999 -9999 -9999 -9999 -9999 -9999 -9999 -9999 -9999 -9999 -9999 -9999 -9999 -9999 -9999 -9999 -9999 -9999 -9999 -9999 -9999 -9999 4425 4362 4368 4417 4417 4297 4241 4241 4385 4419 4292 4345 4461 4252 4130 4194 4028 3990 3975 4006 4102 4014 4151 4130 4195 3917 3805 3979 4213 3950 3702 3719 3719 3785 3933 4006 4097 3978 4183 4117 4117 4047 4080 4264 4255 4223 4183 4191 4200 4209 4363 -9999 -9999 -9999 -9999 -9999 -9999 -9999 -9999 -9999 4265 3976 4292 3824 3674 3719 3998 -9999 -9999 -9999 -9999 -9999 -9999 -9999 -9999 -9999 -9999 -9999 -9999 -9999 -9999 -9999 -9999 -9999 -9999 -9999 -9999 -9999 -9999 -9999 -9999 -9999 -9999 -9999 -9999 -9999 -9999 -9999 -9999 -9999 -9999 -9999 -9999 -9999 -9999 -9999 -9999 -9999 -9999 -9999 -9999 -9999 -9999 -9999 -9999 -9999 -9999 -9999 -9999 -9999 -9999 -9999 -9999 -9999 -9999 -9999 -9999 -9999 -9999 -9999 -9999 -9999 -9999 -9999 -9999 -9999 -9999 3850 3850 3570 3488 3938 3540 3654 3762 3914 4017 3994 3545 3416 3416 3379 3377 3449 3449 2753 3134 3946 3946 2902 2499 2231 2231 2548 2893 2547 2547 2787 2842 3110 3009 3014 3014 2177 1779 2123 1344 2100 1933 2339 1864 1774 1388 1437 2050 2050 2283 2380 2069 2810 2659 2140 2818 1985 1837 1398 1257 1468 1468 1938 1450 1405 1405 1345 1215 1354 884 942 1072 1326 1451 1738 1738 2234 1984 2072 1635 1635 1469 1625 1754 1766 1826 1502 1502 1699 1322 1259 1361 1361 1019 956 1023 1023 1004 1004 1042 863 936 1153 1249 1001 1127 823 746 1350 659 633 813 871 817 1821 1528 1528 1009 1075 1538 -9999 -9999 -9999 -9999 -9999 -9999 -9999 -9999 -9999 -9999 -9999 -9999 -9999 -9999 -9999 -9999 -9999 -9999 -9999 -9999 -9999 -9999 -9999 -9999 -9999 -9999 -9999 -9999 -9999 -9999 -9999 -9999 -9999 -9999 -9999 -9999 -9999 -9999 -9999 -9999 -9999 -9999 -9999 -9999 -9999 -9999 -9999 -9999 -9999 -9999 -9999 -9999 -9999 -9999
-9999 -9999 -9999 -9999 -9999 -9999 -9999 -9999 -9999 -9999 -9999 -9999 -9999 -9999 -9999 -9999 -9999 -9999 -9999 -9999 -9999 -9999 -9999 -9999 -9999 -9999 -9999 -9999 -9999 -9999 -9999 -9999 -9999 -9999 -9999 -9999 -9999 -9999 -9999 -9999 -9999 -9999 -9999 -9999 -9999 -9999 -9999 -9999 -9999 -9999 -9999 -9999 -9999 -9999 -9999 -9999 -9999 -9999 -9999 -9999 -9999 -9999 -9999 -9999 -9999 -9999 -9999 -9999 -9999 -9999 -9999 -9999 -9999 -9999 -9999 -9999 -9999 -9999 -9999 -9999 -9999 -9999 -9999 4992 4953 4789 4493 4522 4531 4515 4602 4602 4620 4484 4484 4435 4459 4246 4426 4512 4211 4211 4237 4251 4448 4601 4559 4581 4905 4905 4713 4389 4100 4100 4076 4206 3840 3707 4245 4113 3603 3869 3660 4872 4174 4586 4586 4292 4184 4191 4446 4610 3922 4082 4179 4179 4384 4657 4517 4405 4367 4408 4360 4282 4282 4444 4456 4229 4229 4226 4237 4282 4166 4171 4477 4093 4071 4067 4062 4061 4097 4025 4025 4013 4009 4009 4080 4281 4696 4657 4657 4355 4682 4568 4700 4357 4281 4281 4164 4129 4202 4202 4302 4487 4376 4442 4830 4605 4707 4569 4484 4617 4785 4696 4519 4530 4469 4457 4463 4516 4464 4464 4410 4410 4468 4367 4373 4512 4512 -9999 -9999 -9999 -9999 -9999 -9999 -9999 -9999 -9999 -9999 -9999 -9999 -9999 -9999 -9999 -9999 -9999 -9999 -9999 -9999 -9999 -9999 -9999 -9999 4277 4277 4343 4417 4276 4241 4241 4394 4308 4265 4317 4199 4171 4130 4194 4074 4014 3975 4006 3937 4010 3986 3986 4130 4457 3805 3842 3842 4136 4012 3884 3654 3654 4101 4101 3949 3958 4173 4335 4133 4177 4195 4282 4264 4228 4191 4191 4200 4209 4504 4504 4457 4181 4131 4131 4468 -9999 -9999 -9999 4265 4265 4263 3702 3645 4037 3846 3846 3891 -9999 -9999 -9999 -9999 -9999 -9999 -9999 -9999 -9999 -9999 -9999 -9999 -9999 -9999 -9999 -9999 -9999 -9999 -9999 -9999 -9999 -9999 -9999 -9999 -9999 -9999 -9999 -9999 -9999 -9999 -9999 -9999 -9999 -9999 -9999 -9999 -9999 -9999 -9999 -9999 -9999 -9999 -9999 -9999 -9999 -9999 -9999 -9999 -9999 -9999 -9999 -9999 -9999 -9999 -9999 -9999 -9999 -9999 -9999 -9999 -9999 -9999 -9999 -9999 -9999 -9999 -9999 -9999 -9999 -9999 3637 3630 3903 3667 3667 4156 3914 3673 3545 3946 3416 3416 3588 3295 3187 3449 3113 3344 3510 3510 2935 3069 2412 2412 2498 4168 2912 2912 2618 2533 2661 2661 2347 1868 1704 1548 1344 1294 1341 1341 2777 1864 1667 1332 1588 1898 1879 2283 2197 1763 1763 1875 1994 1730 1852 1837 1599 1181 1285 1221 1567 1410 1387 1387 1635 883 883 897 1266 1678 1748 2223 1831 1757 1950 1956 1788 1831 1825 1446 1448 1766 1766 1826 1966 1703 1703 1323 1257 1234 1234 1034 1034 957 957 850 977 1061 935 838 1005 1324 1252 1054 1009 1062 1265 807 703 817 817 817 878 918 918 979 1210 1233 -9999 -9999 -9999 -9999 -9999 -9999 -9999 -9999 -9999 -9999 -9999 -9999 -9999 -9999 -9999 -9999 -9999 -9999 -9999 -9999 -9999 -9999 -9999 -9999 -9999 -9999 -9999 -9999 -9999 -9999 -9999 -9999 -9999 -9999 -9999 -9999 -9999 -9999 -9999 -9999 -9999 -9999 -9999 -9999 -9999 -9999 -9999 -9999 -9999 -9999 -9999 -9999 -9999 -9999
-9999 -9999 -9999 -9999 -9999 -9999 -9999 -9999 -9999 -9999 -9999 -9999 -9999 -9999 -9999 -9999 -9999 -9999 -9999 -9999 -9999 -9999 -9999 -9999 -9999 -9999 -9999 -9999 -9999 -9999 -9999 -9999 -9999 -9999 -9999 -9999 -9999 -9999 -9999 -9999 -9999 -9999 -9999 -9999 -9999 -9999 -9999 -9999 -9999 -9999 -9999 -9999 -9999 -9999 -9999 -9999 -9999 -9999 -9999 -9999 -9999 -9999 -9999 -9999 -9999 -9999 -9999 -9999 -9999 -9999 -9999 -9999 -9999 -9999 -9999 -9999 -9999 -9999 -9999 -9999 -9999 -9999 -9999 -9999 -9999 -9999 4713 4522 4406 4406 4404 4534 4437 4434 4344 4430 4255 4255 4356 4573 4378 4224 4298 4251 4267 4316 4449 4630 4541 4679 4713 4713 4100 4546 4076 4206 3840 4184 4245 4046 3603 4044 3660 3614 3860 4279 4505 4546 4184 4191 4446 3870 4046 4267 4495 4610 4351 4351 4600 4405 4424 4346 4468 4270 4300 4255 4456 4201 4186 4226 4150 4135 4129 4136 4102 4101 4106 4089 4130 4102 4093 4051 4077 4043 4009 4004 4004 4082 4292 4696 4438 4691 4682 4682 4700 4445 4281 4281 4164 4129 4202 4202 4324 4320 4320 4444 4830 4981 4707 4455 4455 4753 4904 4706 4619 4733 4530 4494 4472 4710 4521 4543 4448 4431 4431 4356 4356 4446 4512 4503 4472 4500 4630 -9999 -9999 -9999 -9999 -9999 -9999 -9999 -9999 -9999 -9999 -9999 -9999 -9999 -9999 -9999 -9999 -9999 -9999 -9999 -9999 4352 4214 4212 4238 4276 4268 4253 4269 4308 4378 4317 4318 4208 4167 4167 4197 4039 4233 4278 3937 3903 4026 3986 4013 4011 4249 3933 3752 4041 4012 4012 3654 3654 4101 4101 3881 3966 4123 4083 4095 4154 4155 4153 4153 4228 4328 4400 4184 4204 4484 4301 4260 4606 4131 4011 3963 4239 -9999 -9999 4100 4396 4306 3730 3579 3923 3846 3846 3891 -9999 -9999 -9999 -9999 -9999 -9999 -9999 -9999 -9999 -9999 -9999 -9999 -9999 -9999 -9999 -9999 -9999 -9999 -9999 -9999 -9999 -9999 -9999 -9999 -9999 -9999 -9999 -9999 -9999 -9999 -9999 -9999 -9999 -9999 -9999 -9999 -9999 -9999 -9999 -9999 -9999 -9999 -9999 -9999 -9999 -9999 -9999 -9999 -9999 -9999 -9999 -9999 -9999 -9999 -9999 -9999 -9999 -9999 -9999 -9999 -9999 -9999 -9999 -9999 -9999 -9999 -9999 -9999 -9999 -9999 3867 3762 4077 3673 3875 3765 3985 3780 3780 3946 3599 3814 3588 3435 3473 2992 3113 3392 3710 3860 2977 2807 3028 2498 2498 3334 3119 2784 2557 2228 2370 2233 2419 1868 1704 1548 1548 2442 1341 1257 1468 2029 1667 1269 1269 1898 1879 1973 2197 1763 1763 1704 1786 1639 1939 2031 1664 1285 1285 1089 1457 1382 1387 1024 1012 883 883 949 1266 1640 1817 1625 1686 1757 1895 1698 1673 1831 1831 1332 1699 1514 1565 1499 1637 1703 1703 1323 1257 1234 1234 1032 1031 1338 922 850 853 810 841 838 1005 1213 1368 959 959 1159 1206 807 703 919 919 864 864 918 918 1081 1092 1233 -9999 -9999 -9999 -9999 -9999 -9999 -9999 -9999 -9999 -9999 -9999 -9999 -9999 -9999 -9999 -9999 -9999 -9999 -9999 -9999 -9999 -9999 -9999 -9999 -9999 -9999 -9999 -9999 -9999 -9999 -9999 -9999 -9999 -9999 -9999 -9999 -9999 -9999 -9999 -9999 -9999 -9999 -9999 -9999 -9999 -9999 -9999 -9999 -9999 -9999 -9999 -9999 -9999 -9999
-9999 -9999 -9999 -9999 -9999 -9999 -9999 -9999 -9999 -9999 -9999 -9999 -9999 -9999 -9999 -9999 -9999 -9999 -9999 -9999 -9999 -9999 -9999 -9999 -9999 -9999 -9999 -9999 -9999 -9999 -9999 -9999 -9999 -9999 -9999 -9999 -9999 -9999 -9999 -9999 -9999 -9999 -9999 -9999 -9999 -9999 -9999 -9999 -9999 -9999 -9999 -9999 -9999 -9999 -9999 -9999 -9999 -9999 -9999 -9999 -9999 -9999 -9999 -9999 -9999 -9999 -9999 -9999 -9999 -9999 -9999 -9999 -9999 -9999 -9999 -9999 -9999 -9999 -9999 -9999 -9999 -9999 -9999 -9999 -9999 -9999 -9999 -9999 4406 4406 4404 4404 4352 4401 4293 4285 4284 4325 4356 4387 4611 4285 4285 4295 4316 4316 4387 4336 4128 4128 4138 4138 4493 4493 4264 4264 4726 4184 4160 4335 4318 4350 3709 3566 4367 4279 4090 4612 4485 4485 4537 3870 3988 3988 3961 4032 4280 4351 4614 4534 4424 4329 4293 4324 4300 4350 4213 4396 4186 4180 4150 4191 4129 4113 4113 4130 4126 4126 4216 4238 4221 4322 4322 4254 4185 4004 4004 3996 4086 4406 4379 4343 4794 4323 4818 4615 4510 4299 4239 4109 4373 4324 4590 4320 4320 4409 4792 4906 4906 4430 4399 4547 4559 4657 4659 4733 4676 4626 4682 4811 4557 4535 4486 4491 4459 4393 4393 4408 4327 4400 4483 4500 4524 4513 -9999 -9999 -9999 -9999 -9999 -9999 -9999 -9999 -9999 -9999 -9999 -9999 -9999 -9999 -9999 -9999 -9999 -9999 4354 4208 4201 4119 4119 4536 4192 4126 4296 4296 4434 4271 4318 4203 4250 4307 4185 4145 4145 4036 3980 3958 3889 3884 3940 3927 4232 3974 3706 3785 3960 4270 3795 3959 3638 3728 3793 4286 4123 3974 4041 4196 4196 4181 4116 4218 4218 4270 4156 4635 4190 4196 4260 4351 4079 3963 3914 4100 3707 3707 3878 4074 4331 3936 3579 3689 3724 3856 4000 4033 4033 4085 -9999 -9999 -9999 -9999 -9999 -9999 -9999 -9999 -9999 -9999 -9999 -9999 -9999 -9999 -9999 -9999 -9999 -9999 -9999 -9999 -9999 -9999 -9999 -9999 -9999 -9999 -9999 -9999 -9999 -9999 -9999 -9999 -9999 -9999 -9999 -9999 -9999 -9999 -9999 -9999 -9999 -9999 -9999 -9999 -9999 -9999 -9999 -9999 -9999 -9999 -9999 -9999 -9999 -9999 -9999 -9999 -9999 -9999 -9999 -9999 -9999 -9999 -9999 -9999 -9999 -9999 -9999 -9999 -9999 3907 3695 4000 3795 3921 4076 3747 3969 3814 3674 4040 3466 3278 3186 3273 3484 3710 3710 2863 2708 3383 2664 2664 3216 3739 2784 2784 2228 2480 1959 1912 2081 2352 1746 1434 1891 1679 1233 1191 1191 1848 1230 1230 2319 2319 1973 2378 1936 1936 1786 1786 1428 2117 1800 1476 1476 1262 1035 1242 1586 1398 1024 853 971 1377 1662 1812 1545 1600 1625 1762 1677 1677 1494 1376 1247 1247 1332 1803 1426 1426 1321 1321 1490 1722 1654 1571 1347 1347 1322 1240 1078 1078 840 779 810 878 996 1117 1052 1052 947 885 885 1034 913 635 984 984 737 737 970 797 973 997 1251 -9999 -9999 -9999 -9999 -9999 -9999 -9999 -9999 -9999 -9999 -9999 -9999 -9999 -9999 -9999 -9999 -9999 -9999 -9999 -9999 -9999 -9999 -9999 -9999 -9999 -9999 -9999 -9999 -9999 -9999 -9999 -9999 -9999 -9999 -9999 -9999 -9999 -9999 -9999 -9999 -9999 -9999 -9999 -9999 -9999 -9999 -9999 -9999 -9999 -9999 -9999 -9999 -9999 -9999
-9999 -9999 -9999 -9999 -9999 -9999 -9999 -9999 -9999 -9999 -9999 -9999 -9999 -9999 -9999 -9999 -9999 -9999 -9999 -9999 -9999 -9999 -9999 -9999 -9999 -9999 -9999 -9999 -9999 -9999 -9999 -9999 -9999 -9999 -9999 -9999 -9999 -9999 -9999 -9999 -9999 -9999 -9999 -9999 -9999 -9999 -9999 -9999 -9999 -9999 -9999 -9999 -9999 -9999 -9999 -9999 -9999 -9999 -9999 -9999 -9999 -9999 -9999 -9999 -9999 -9999 -9999 -9999 -9999 -9999 -9999 -9999 -9999 -9999 -9999 -9999 -9999 -9999 -9999 -9999 -9999 -9999 -9999 -9999 -9999 -9999 -9999 -9999 -9999 -9999 4416 4352 4453 4401 4376 4323 4323 4417 4597 4393 4449 4349 4349 4389 4397 4350 4422 4207 4128 4128 3955 3955 4019 4493 4019 4180 4673 4685 4685 4566 4318 3936 3709 4080 4080 3672 4092 4350 4572 3748 4537 4221 4407 4407 4032 4486 4280 4126 4650 4534 4431 4381 4362 4346 4370 4335 4329 4396 4396 4572 4387 4191 4209 4134 4253 4141 4140 4144 4440 4440 4238 4156 4385 4195 4273 4006 4087 3996 4274 4066 4350 4343 4185 4323 4570 4647 4379 4379 4470 4419 4074 4133 4267 4426 4239 4332 4545 4912 4524 4435 4399 4547 4457 4908 4628 4982 4833 4634 4682 4811 4602 4714 4491 4491 4461 4409 4393 4327 4327 4573 4483 4426 4524 4456 -9999 -9999 -9999 -9999 -9999 -9999 -9999 -9999 -9999 -9999 -9999 -9999 -9999 -9999 -9999 4357 4316 4316 4354 4218 4208 4097 4093 4472 4438 4072 4186 4293 4316 4256 4386 4324 4250 4222 4267 4145 4145 4036 3980 3958 3889 3884 3827 3819 3819 3883 3706 3686 3960 4255 3928 3959 3638 3728 3805 4262 4281 4002 4059 4211 4196 4169 4116 4083 4218 4120 4206 4231 4255 4383 4288 4338 4163 4117 3764 3954 3655 3655 3878 4074 3933 3744 3582 3689 3724 3988 3648 3951 3888 3888 4184 -9999 -9999 -9999 -9999 -9999 -9999 -9999 -9999 -9999 -9999 -9999 -9999 -9999 -9999 -9999 -9999 -9999 -9999 -9999 -9999 -9999 -9999 -9999 -9999 -9999 -9999 -9999 -9999 -9999 -9999 -9999 -9999 -9999 -9999 -9999 -9999 -9999 -9999 -9999 -9999 -9999 -9999 -9999 -9999 -9999 -9999 -9999 -9999 -9999 -9999 -9999 -9999 -9999 -9999 -9999 -9999 -9999 -9999 -9999 -9999 -9999 -9999 -9999 -9999 -9999 -9999 -9999 4027 4027 3788 4000 3672 3921 3610 3564 3564 4072 3557 3855 3572 3379 3379 3273 3484 4011 3423 3605 2863 3383 2851 3661 3400 3481 3260 2647 2480 2480 2284 1756 1684 1684 2405 1504 1993 2292 1547 1191 1175 1435 1230 1149 2319 2319 2078 2142 1734 1734 1318 1318 1987 2012 1896 1586 1381 1678 1035 1227 1553 1658 1239 853 971 1866 1644 1644 1510 1665 2138 1657 1899 1899 1494 1296 1474 1247 1382 1803 1459 1459 1321 1281 1446 1603 1444 1466 1430 1545 1585 1444 1288 1288 900 779 760 795 1343 1117 1447 1052 993 885 885 877 877 655 624 706 672 737 781 781 931 1004 -9999 -9999 -9999 -9999 -9999 -9999 -9999 -9999 -9999 -9999 -9999 -9999 -9999 -9999 -9999 -9999 -9999 -9999 -9999 -9999 -9999 -9999 -9999 -9999 -9999 -9999 -9999 -9999 -9999 -9999 -9999 -9999 -9999 -9999 -9999 -9999 -9999 -9999 -9999 -9999 -9999 -9999 -9999 -9999 -9999 -9999 -9999 -9999 -9999 -9999 -9999 -9999 -9999 -9999 -9999
-9999 -9999 -9999 -9999 -9999 -9999 -9999 -9999 -9999 -9999 -9999 -9999 -9999 -9999 -9999 -9999 -9999 -9999 -9999 -9999 -9999 -9999 -9999 -9999 -9999 -9999 -9999 -9999 -9999 -9999 -9999 -9999 -9999 -9999 -9999 -9999 -9999 -9999 -9999 -9999 -9999 -9999 -9999 -9999 -9999 -9999 -9999 -9999 -9999 -9999 -9999 -9999 -9999 -9999 -9999 -9999 -9999 -9999 -9999 -9999 -9999 -9999 -9999 -9999 -9999 -9999 -9999 -9999 -9999 -9999 -9999 -9999 -9999 -9999 -9999 -9999 -9999 -9999 -9999 -9999 -9999 -9999 -9999 -9999 -9999 -9999 -9999 -9999 -9999 -9999 -9999 4439 4453 4427 4432 4432 4505 -9999 4598 4548 4548 4406 4445 4494 4456 4571 4410 4416 4853 4733 3955 3955 4019 3827 4058 4058 4673 4451 4451 4289 4566 4411 4406 4028 4080 3550 3939 4053 3657 4029 4240 4221 4391 4572 4508 4494 4309 4236 4517 4595 4475 4421 4423 4419 4374 4436 4503 4584 4365 4294 4328 4244 4171 4245 4253 4253 4208 4193 4258 4440 4250 4220 4220 4113 4061 4047 4040 3992 3988 4282 4282 4344 4344 4631 4408 4354 4354 4468 4442 4311 4048 4711 4267 4196 4219 4316 4316 4408 4524 4692 4678 4332 4332 4709 4643 4490 4913 4683 4768 4650 4535 4871 4714 4557 4495 4517 4517 4317 4306 4469 4573 4426 4495 4464 4448 -9999 -9999 -9999 -9999 4458 4458 4548 4588 4496 4370 4370 4319 4281 4281 4339 4284 4290 4359 4307 4367 4186 4093 4057 4041 4054 4393 4293 4151 4229 4287 4287 4301 4301 4325 4325 4212 4259 3961 3961 3963 3963 3855 3913 3799 3762 4020 3979 3654 3636 3726 3726 3956 3956 4020 4020 4259 4201 4250 4259 4210 4171 4274 4088 4066 4120 4613 4570 4255 4577 4340 4203 3930 3899 3877 3877 3596 3596 3901 4081 3765 3649 3926 3910 3476 3634 3629 3657 3652 3839 3984 4055 -9999 -9999 -9999 -9999 -9999 -9999 -9999 -9999 -9999 -9999 -9999 -9999 -9999 -9999 -9999 -9999 -9999 -9999 -9999 -9999 -9999 -9999 -9999 -9999 -9999 -9999 -9999 -9999 -9999 -9999 -9999 -9999 -9999 -9999 -9999 -9999 -9999 -9999 -9999 -9999 -9999 -9999 -9999 -9999 -9999 -9999 -9999 -9999 -9999 -9999 -9999 -9999 -9999 -9999 -9999 -9999 -9999 -9999 -9999 -9999 -9999 -9999 -9999 -9999 -9999 -9999 4027 4027 3742 3815 3602 3602 3536 3468 3712 3881 3656 3557 3711 3711 3280 3389 3754 4157 3533 3008 3533 3533 2894 2894 3942 4034 2968 2501 2226 2226 2463 1863 1684 1684 1703 2405 2261 2261 1913 1517 1517 1148 1115 1115 1903 1776 1804 2159 1734 1734 1243 1243 1651 2097 1655 1586 1347 1347 940 940 1044 1418 853 853 1491 1868 1373 1373 1453 1684 1555 1555 1626 1626 1375 1164 1164 1369 1538 1516 1445 1413 1232 1153 1183 2020 1329 1518 1266 1266 1132 1068 1037 1037 991 826 826 884 785 964 1109 1215 1222 1463 1463 760 760 840 768 637 637 798 964 781 784 901 -9999 -9999 -9999 -9999 -9999 -9999 -9999 -9999 -9999 -9999 -9999 -9999 -9999 -9999 -9999 -9999 -9999 -9999 -9999 -9999 -9999 -9999 -9999 -9999 -9999 -9999 -9999 -9999 -9999 -9999 -9999 -9999 -9999 -9999 -9999 -9999 -9999 -9999 -9999 -9999 -9999 -9999 -9999 -9999 -9999 -9999 -9999 -9999 -9999 -9999 -9999 -9999 -9999 -9999 -9999
4945 4849 4835 -9999 -9999 -9999 -9999 -9999 -9999 -9999 -9999 -9999 -9999 -9999 -9999 -9999 -9999 -9999 -9999 -9999 -9999 -9999 -9999 -9999 -9999 -9999 -9999 -9999 -9999 -9999 -9999 -9999 -9999 -9999 -9999 -9999 -9999 -9999 -9999 -9999 -9999 -9999 -9999 -9999 -9999 -9999 -9999 -9999 -9999 -9999 -9999 -9999 -9999 -9999 -9999 -9999 -9999 -9999 -9999 -9999 -9999 -9999 -9999 -9999 -9999 -9999 -9999 -9999 -9999 -9999 -9999 -9999 -9999 -9999 -9999 -9999 -9999 -9999 -9999 -9999 -9999 -9999 -9999 -9999 -9999 -9999 -9999 -9999 -9999 -9999 -9999 -9999 -9999 -9999 -9999 -9999 -9999 -9999 -9999 4609 4526 4460 4672 4723 4458 4636 4509 4416 4282 4482 4482 4070 4023 4360 3871 4058 3740 3881 3999 3660 3638 3700 4148 3806 3550 3550 3553 3553 3606 4283 4269 3892 4356 4359 4678 4508 4549 4765 4893 4538 4475 4503 4603 4433 4453 4535 4606 4434 4365 4387 4277 4233 4313 4290 4334 4254 4235 4274 4258 4315 4316 4355 4441 4090 4092 4056 4056 4140 4038 4150 4337 4231 4342 4342 4556 4354 4331 4331 4102 4167 4324 4324 4109 4253 4317 4204 4256 4351 4692 4722 4453 4314 4621 4289 4469 4490 4650 4683 4605 4600 4640 4535 4488 4514 4527 4752 4487 4337 4308 4469 4423 4387 4337 4464 4371 4529 4529 4520 4467 4400 4482 4548 4485 4444 4408 4377 4319 4308 4271 4271 4261 4233 4367 4490 4490 4217 4362 4289 4138 4160 4087 4393 4072 4127 4237 4237 4301 4301 4325 4262 4199 4071 4071 3999 4208 4374 3980 3913 3923 3923 4020 4020 3741 3700 3841 3841 3578 3728 3841 3932 3991 4172 4250 4207 4279 4192 4197 4068 4038 4038 4390 4276 4312 4167 4340 4789 3943 3869 3783 4051 3596 3787 3901 3836 3642 3583 3583 3605 3607 3413 3415 3449 3524 3555 3662 4055 3907 4012 -9999 -9999 -9999 -9999 -9999 -9999 -9999 -9999 -9999 -9999 -9999 -9999 -9999 -9999 -9999 -9999 -9999 -9999 -9999 -9999 -9999 -9999 -9999 -9999 -9999 -9999 -9999 -9999 -9999 -9999 -9999 -9999 -9999 -9999 -9999 -9999 -9999 -9999 -9999 -9999 -9999 -9999 -9999 -9999 -9999 -9999 -9999 -9999 -9999 -9999 -9999 -9999 -9999 -9999 -9999 -9999 -9999 -9999 -9999 -9999 -9999 -9999 -9999 -9999 -9999 3645 3645 3744 3653 3653 3619 3468 3364 3364 3485 3922 3931 3711 3460 3524 3801 3944 3533 3355 3588 3588 3110 3110 3927 3927 3688 2501 2444 2960 2097 2178 2189 2189 1812 2439 2847 2930 2226 2069 1517 1517 1268 1082 1259 1259 1148 1199 1264 1339 1125 1125 1812 2243 1897 1614 1432 1459 1161 945 1418 1418 847 1189 1655 1655 1360 1373 1519 1519 1370 1510 1484 1243 1187 1093 1093 1597 1385 1748 1363 1198 1198 1093 1009 1278 1399 1106 1334 1334 1132 1068 1037 1037 956 956 889 793 841 700 746 1276 1276 1099 820 743 704 699 610 637 637 671 688 771 771 816 -9999 -9999 -9999 -9999 -9999 -9999 -9999 -9999 -9999 -9999 -9999 -9999 -9999 -9999 -9999 -9999 -9999 -9999 -9999 -9999 -9999 -9999 -9999 -9999 -9999 -9999 -9999 -9999 -9999 -9999 -9999 -9999 -9999 -9999 -9999 -9999 -9999 -9999 -9999 -9999 -9999 -9999 -9999 -9999 -9999 -9999 -9999 -9999 -9999 -9999 -9999 -9999 -9999 -9999 -9999
4850 4849 4849 4839 4963 -9999 -9999 -9999 -9999 -9999 -9999 -9999 -9999 -9999 -9999 -9999 -9999 -9999 -9999 -9999 -9999 -9999 -9999 -9999 -9999 -9999 -9999 -9999 -9999 -9999 -9999 -9999 -9999 -9999 -9999 -9999 -9999 -9999 -9999 -9999 -9999 -9999 -9999 -9999 -9999 -9999 -9999 -9999 -9999 -9999 -9999 -9999 -9999 -9999 -9999 -9999 -9999 -9999 -9999 -9999 -9999 -9999 -9999 -9999 -9999 -9999 -9999 -9999 -9999 -9999 -9999 -9999 -9999 -9999 -9999 -9999 -9999 -9999 -9999 -9999 -9999 -9999 -9999 -9999 -9999 -9999 -9999 -9999 -9999 -9999 -9999 -9999 -9999 -9999 -9999 -9999 -9999 -9999 -9999 -9999 -9999 -9999 4533 4479 4479 4610 4636 4590 4282 4482 4482 4252 4110 4360 3907 3731 3720 3721 3999 4024 3922 3700 4148 3620 3620 3632 3553 3553 3624 3624 3808 3847 4626 4359 4281 4281 4660 4660 4929 4538 4592 4596 4584 4465 4473 4535 4535 4434 4708 4408 4277 4277 4313 4313 4244 4254 4318 4274 4312 4326 4316 4226 4323 4090 4092 4081 4108 4130 4038 4150 3973 3973 3989 4342 4188 4296 4296 4331 4008 4008 4302 4324 4109 4599 4317 4391 4391 4343 4343 4722 4453 4689 4613 4289 4221 4276 4590 4797 4420 4321 4321 4666 4699 4699 4527 4406 4554 4629 4308 4331 4331 4326 4308 4337 4352 4402 4402 4382 4466 4629 4403 4310 4485 4499 4536 4534 4478 4392 4314 4279 4233 4215 4215 4243 4320 4507 4223 4223 4234 4097 3993 4007 4038 4098 4133 4167 4301 4256 4275 4246 4199 4084 4071 4335 4137 4236 3980 3980 4213 4340 4143 4000 3869 4121 4094 3566 3578 3640 4047 3825 4242 4170 4170 4258 4258 4371 4243 4212 4272 4435 3960 3941 4312 4078 4275 4204 3721 3659 3754 3610 3574 3539 3539 3769 3855 3866 3583 3422 3405 3462 3415 3371 3418 3494 3662 3544 3931 3817 -9999 -9999 -9999 -9999 -9999 -9999 -9999 -9999 -9999 -9999 -9999 -9999 -9999 -9999 -9999 -9999 -9999 -9999 -9999 -9999 -9999 -9999 -9999 -9999 -9999 -9999 -9999 -9999 -9999 -9999 -9999 -9999 -9999 -9999 -9999 -9999 -9999 -9999 -9999 -9999 -9999 -9999 -9999 -9999 -9999 -9999 -9999 -9999 -9999 -9999 -9999 -9999 -9999 -9999 -9999 -9999 -9999 -9999 -9999 -9999 -9999 -9999 -9999 -9999 3782 3619 3619 3588 3733 3866 3611 3512 3364 3364 3553 3684 3514 3514 3413 3512 3801 4155 3902 3541 4136 4136 3110 3110 4117 4117 2903 2852 2960 2960 2422 2425 2339 2467 1812 2095 2306 2999 3036 1724 1518 1772 1543 1234 1259 1259 1532 1532 1009 1054 1039 1125 1693 2244 1788 1828 1420 1420 1161 1051 1051 1257 928 1203 1501 1655 1281 1493 1310 1310 1345 1555 1484 1243 1168 1078 1093 1722 1353 1413 1887 1198 1154 1021 970 983 943 1248 1237 1704 1382 1382 1356 1341 956 956 846 852 686 686 714 1022 1022 857 857 936 626 699 610 832 742 709 688 771 999 999 -9999 -9999 -9999 -9999 -9999 -9999 -9999 -9999 -9999 -9999 -9999 -9999 -9999 -9999 -9999 -9999 -9999 -9999 -9999 -9999 -9999 -9999 -9999 -9999 -9999 -9999 -9999 -9999 -9999 -9999 -9999 -9999 -9999 -9999 -9999 -9999 -9999 -9999 -9999 -9999 -9999 -9999 -9999 -9999 -9999 -9999 -9999 -9999 -9999 -9999 -9999 -9999 -9999 -9999 -9999
4753 4751 4791 4759 5066 4816 4794 4794 4794 4847 4856 4904 4934 -9999 -9999 -9999 -9999 -9999 -9999 -9999 -9999 -9999 -9999 -9999 -9999 -9999 -9999 -9999 -9999 -9999 -9999 -9999 -9999 -9999 -9999 -9999 -9999 -9999 -9999 -9999 -9999 -9999 -9999 -9999 -9999 -9999 -9999 -9999 -9999 -9999 -9999 -9999 -9999 -9999 -9999 -9999 -9999 -9999 -9999 -9999 -9999 -9999 -9999 -9999 -9999 -9999 -9999 -9999 -9999 -9999 -9999 -9999 -9999 -9999 -9999 -9999 -9999 -9999 -9999 -9999 -9999 -9999 -9999 -9999 -9999 -9999 -9999 -9999 -9999 -9999 -9999 -9999 -9999 -9999 -9999 -9999 -9999 -9999 -9999 -9999 -9999 -9999 -9999 4699 4581 4610 4343 4343 4403 4575 4626 4252 4643 4321 4232 3849 3879 3748 3684 4388 4206 3922 3725 4522 4145 3632 3606 3638 3624 3624 4610 4265 3904 4283 4128 4470 4705 4769 4557 4908 4695 4540 4543 4754 4508 4513 4598 4593 4535 4401 4355 4339 4449 4340 4288 4351 4375 4321 4339 4387 4412 4180 4180 4126 4113 4229 4341 4182 4130 4095 4068 3964 3989 4079 4245 4437 4296 4145 3985 4092 4074 4063 4440 4396 4179 4135 4242 4318 4343 4296 4725 4612 4625 4317 4160 4256 4590 4364 4364 4371 4321 4428 4726 4775 4730 4335 4473 4629 4629 4374 4260 4329 4329 4322 4253 4351 4277 4301 4429 4524 4310 4310 4334 4429 4671 4552 4478 4452 4381 4320 4340 4215 4215 4253 4226 4315 4507 4192 4234 4097 3967 3967 3992 4098 4065 4273 4105 4154 4397 4370 4361 4084 4084 4554 4241 4196 4196 4000 4431 4304 4283 4046 3924 3885 3965 3571 3526 3709 4059 4059 3825 4170 4170 4078 4318 4342 4433 4272 4005 4042 4435 3941 3848 3909 3987 3712 3705 3829 3882 3665 3742 3822 3539 3546 3557 3472 3543 3594 3594 3462 3462 3345 3345 3467 3709 3561 3529 3670 3670 3728 3793 -9999 -9999 -9999 -9999 -9999 -9999 -9999 -9999 -9999 -9999 -9999 -9999 -9999 -9999 -9999 -9999 -9999 -9999 -9999 -9999 -9999 -9999 -9999 -9999 -9999 -9999 -9999 -9999 -9999 -9999 -9999 -9999 -9999 -9999 -9999 -9999 -9999 -9999 -9999 -9999 -9999 -9999 -9999 -9999 -9999 -9999 -9999 -9999 -9999 -9999 -9999 -9999 -9999 -9999 -9999 -9999 -9999 -9999 -9999 -9999 -9999 3681 3621 3619 3588 3654 3651 3594 3302 3355 3434 3553 3535 3514 3413 3413 3505 3610 3610 3866 3656 3997 3637 3346 3346 3789 3789 2903 2852 2645 2645 2584 2517 2339 2583 2627 2095 2550 2785 2411 1748 1748 2414 1627 1622 1988 1988 1483 1155 1663 1176 959 959 1241 1248 1808 2152 1708 1708 1793 1510 1422 1422 807 816 1145 1688 1398 1213 1267 1267 1760 1760 1496 1496 1256 1068 1110 1889 1266 1234 1385 1198 1128 1005 954 946 915 1248 935 1328 1328 1506 1061 1412 1039 1027 951 937 863 788 668 803 808 731 737 576 576 568 568 758 818 709 709 932 828 826 -9999 -9999 -9999 -9999 -9999 -9999 -9999 -9999 -9999 -9999 -9999 -9999 -9999 -9999 -9999 -9999 -9999 -9999 -9999 -9999 -9999 -9999 -9999 -9999 -9999 -9999 -9999 -9999 -9999 -9999 -9999 -9999 -9999 -9999 -9999 -9999 -9999 -9999 -9999 -9999 -9999 -9999 -9999 -9999 -9999 -9999 -9999 -9999 -9999 -9999 -9999 -9999 -9999 -9999 -9999
4753 4753 4740 4742 4770 4755 4765 4794 4843 4856 4856 4904 4934 -9999 -9999 -9999 -9999 -9999 -9999 -9999 -9999 -9999 -9999 -9999 -9999 -9999 -9999 -9999 -9999 -9999 -9999 -9999 -9999 -9999 -9999 -9999 -9999 -9999 -9999 -9999 -9999 -9999 -9999 -9999 -9999 -9999 -9999 -9999 -9999 -9999 -9999 -9999 -9999 -9999 -9999 -9999 -9999 -9999 -9999 -9999 -9999 -9999 -9999 -9999 -9999 -9999 -9999 -9999 -9999 -9999 -9999 -9999 -9999 -9999 -9999 -9999 -9999 -9999 -9999 -9999 -9999 -9999 -9999 -9999 -9999 -9999 -9999 -9999 -9999 -9999 -9999 -9999 -9999 -9999 -9999 -9999 -9999 -9999 -9999 -9999 -9999 -9999 -9999 -9999 -9999 4472 4269 4334 4403 4236 4636 4636 4624 4496 4601 4538 4065 3843 3752 3781 4388 4205 4076 4522 4430 4014 3643 3638 4006 4218 4610 4265 3904 4067 4165 4039 4705 4133 4926 4723 4498 4611 4589 4754 4754 4513 4598 4593 4593 4479 4479 4638 4380 4340 4409 4351 4394 4389 4301 4278 4208 4180 4180 4148 4148 4264 4294 4182 4076 4095 4038 3964 3958 4102 4226 4461 4257 4385 4162 4092 3967 4146 4506 4696 4179 4179 4458 4318 4318 4234 4568 4589 4327 4223 4191 4191 4310 4566 4573 4371 4352 4428 4509 4775 4457 4314 4770 4645 4374 4260 4293 4616 4616 4238 4258 4357 4243 4301 4396 4524 4230 4230 4368 4368 4374 4552 4469 4452 4369 4388 4388 4370 4201 4253 4260 4306 4310 4123 4001 4071 3961 3945 4150 4150 4008 4273 4249 4154 4128 4271 4346 4173 4103 4345 4256 4362 4271 4069 4431 4372 4264 4138 4433 3958 3726 3574 3580 3580 4039 4111 4238 4179 3875 4031 4062 4175 4235 4423 4423 4042 4018 3945 4182 3921 3987 3834 3834 3829 3731 3839 3863 3822 3712 3557 3557 3472 3472 3606 3628 3657 3657 3350 3350 3360 3375 3561 3432 3432 3508 3681 3687 3909 3862 -9999 -9999 -9999 -9999 -9999 -9999 -9999 -9999 -9999 -9999 -9999 -9999 -9999 -9999 -9999 -9999 -9999 -9999 -9999 -9999 -9999 -9999 -9999 -9999 -9999 -9999 -9999 -9999 -9999 -9999 -9999 -9999 -9999 -9999 -9999 -9999 -9999 -9999 -9999 -9999 -9999 -9999 -9999 -9999 -9999 -9999 -9999 -9999 -9999 -9999 -9999 -9999 -9999 -9999 -9999 -9999 -9999 -9999 -9999 3659 3621 3660 3608 3608 3412 3414 3272 3398 3434 3572 3683 3683 3272 3272 3377 3551 3692 3724 3772 4290 3772 3449 3449 3789 3789 3102 3076 2645 2645 2573 2517 2598 2442 2219 2246 2550 2550 2411 2045 2045 2466 2642 1926 2274 2274 1788 1727 1965 1965 959 947 947 1089 1285 1725 1725 1738 1994 1525 1525 1552 807 778 949 1605 1398 1199 1642 1267 1441 1731 1958 2203 1311 1034 978 1695 1215 1215 1421 1342 1128 1128 1071 996 915 813 796 945 945 1360 1061 1030 976 934 951 838 838 788 668 808 673 683 605 576 576 568 568 625 818 680 753 932 923 826 1117 1052 1052 1031 1090 -9999 -9999 -9999 -9999 -9999 -9999 -9999 -9999 -9999 -9999 -9999 -9999 -9999 -9999 -9999 -9999 -9999 -9999 -9999 -9999 -9999 -9999 -9999 -9999 -9999 -9999 -9999 -9999 -9999 -9999 -9999 -9999 -9999 -9999 -9999 -9999 -9999 -9999 -9999 -9999 -9999 -9999 -9999 -9999 -9999 -9999 -9999 -9999 -9999 -9999
4717 4732 4725 4728 4732 4750 4750 4762 4791 4849 4849 4878 4914 -9999 -9999 -9999 -9999 -9999 -9999 -9999 -9999 -9999 -9999 -9999 -9999 -9999 -9999 -9999 -9999 -9999 -9999 -9999 -9999 -9999 -9999 -9999 -9999 -9999 -9999 -9999 -9999 -9999 -9999 -9999 -9999 -9999 -9999 -9999 -9999 -9999 -9999 -9999 -9999 -9999 -9999 -9999 -9999 -9999 -9999 -9999 -9999 -9999 -9999 -9999 -9999 -9999 -9999 -9999 -9999 -9999 -9999 -9999 -9999 -9999 -9999 -9999 -9999 -9999 -9999 -9999 -9999 -9999 -9999 -9999 -9999 -9999 -9999 -9999 -9999 -9999 -9999 -9999 -9999 -9999 -9999 -9999 -9999 -9999 -9999 -9999 -9999 -9999 -9999 -9999 -9999 4473 4581 4334 4246 4119 4242 4530 4424 4424 4345 4531 4365 4495 4171 3781 4201 4041 4041 4891 4125 4027 4027 4176 3614 3521 3594 4775 3595 3595 3674 4165 3721 3782 4228 4204 4197 4899 4660 4702 4660 4660 4602 4636 4589 4540 4571 4487 4405 4526 4378 4409 4454 4348 4301 4301 4222 4345 4345 4224 4239 4271 4204 4252 4129 4118 4038 3955 3953 4140 4226 4070 4146 4304 4162 4162 3967 4037 4326 4103 4089 4346 4346 4135 4109 4378 4304 4578 4370 4134 4282 4149 4530 4458 4622 4142 4281 4238 4373 4253 4237 4446 4446 4515 4393 4406 4293 4226 4226 4407 4258 4208 4300 4312 4286 4324 4204 4204 4260 4582 4571 4178 4316 4469 4390 4367 4367 4272 4228 4360 4248 4181 4309 4203 4001 4001 4345 3983 4145 4062 3931 3979 4216 4342 4128 4271 4346 4276 4242 4242 4346 4648 4229 4084 4279 4372 4535 4535 4005 4433 3642 3574 3580 3580 3497 3497 3635 3708 3811 3832 4038 4175 4041 4303 4303 4262 3999 3999 4182 4182 4045 3870 3938 3863 4063 4063 4151 4100 3839 3729 4237 3881 3690 3628 3632 3644 3433 3338 3350 3314 3387 3296 3327 3327 3405 3681 3560 3747 3655 3765 3798 -9999 -9999 -9999 -9999 -9999 -9999 -9999 -9999 -9999 -9999 -9999 -9999 -9999 -9999 -9999 -9999 -9999 -9999 -9999 -9999 -9999 -9999 -9999 -9999 -9999 -9999 -9999 -9999 -9999 -9999 -9999 -9999 -9999 -9999 -9999 -9999 -9999 -9999 -9999 -9999 -9999 -9999 -9999 -9999 -9999 -9999 -9999 -9999 -9999 -9999 -9999 -9999 -9999 -9999 -9999 -9999 -9999 3601 3447 3519 3519 3608 3383 3190 3190 3676 3742 3640 3636 3404 3699 3238 3414 3414 3505 4272 3901 4213 3772 3772 3637 4053 3189 3275 3350 2933 2949 3019 2566 2955 2442 2442 2468 2957 2660 2353 2258 2545 3353 2114 1990 1411 1411 1941 1495 1525 1525 1049 1049 996 1089 1285 922 966 1613 1499 1792 1480 1563 1264 778 779 779 1032 1137 1045 1045 1105 1581 1973 1973 2071 1056 978 931 897 1216 1366 1507 1413 1358 1682 1401 1080 1080 751 755 755 757 930 1030 1030 934 803 817 817 830 795 590 590 569 569 696 696 640 738 738 818 704 880 845 879 941 1117 1052 1052 870 870 870 1081 -9999 -9999 -9999 -9999 -9999 -9999 -9999 -9999 -9999 -9999 -9999 -9999 -9999 -9999 -9999 -9999 -9999 -9999 -9999 -9999 -9999 -9999 -9999 -9999 -9999 -9999 -9999 -9999 -9999 -9999 -9999 -9999 -9999 -9999 -9999 -9999 -9999 -9999 -9999 -9999 -9999 -9999 -9999 -9999 -9999 -9999 -9999 -9999
4717 4717 4725 4725 4736 4733 4750 4766 4781 4906 4906 4878 4914 -9999 -9999 -9999 -9999 -9999 -9999 -9999 -9999 -9999 -9999 -9999 -9999 -9999 -9999 -9999 -9999 -9999 -9999 -9999 -9999 -9999 -9999 -9999 -9999 -9999 -9999 -9999 -9999 -9999 -9999 -9999 -9999 -9999 -9999 -9999 -9999 -9999 -9999 -9999 -9999 -9999 -9999 -9999 -9999 -9999 -9999 -9999 -9999 -9999 -9999 -9999 -9999 -9999 -9999 -9999 -9999 -9999 -9999 -9999 -9999 -9999 -9999 -9999 -9999 -9999 -9999 -9999 -9999 -9999 -9999 -9999 -9999 -9999 -9999 -9999 -9999 -9999 -9999 -9999 -9999 -9999 -9999 -9999 -9999 -9999 -9999 -9999 -9999 -9999 -9999 -9999 -9999 4534 4581 4208 4119 4098 4242 4066 4022 4027 4345 4223 4633 4167 4167 4201 4201 3972 3972 4226 4125 4257 4027 3559 3614 3576 3594 3513 3595 4131 3674 3674 3782 4629 4228 4204 4090 4899 4725 4631 4660 4660 4640 4616 4543 4516 4571 4487 4487 4647 4378 4419 4460 4460 4378 4255 4255 4345 4345 4262 4262 4271 4204 4168 4293 4118 4118 3951 3947 3944 4366 4244 4058 4113 4524 4036 3938 4031 4326 4018 4089 4346 4346 4070 4057 4287 4343 4231 4304 4074 4033 4069 4202 4248 4622 4136 4241 4241 4373 4411 4218 4362 4446 4785 4785 4406 4391 4226 4215 4359 4364 4208 4232 4154 4263 4120 4337 4230 4230 4229 4191 4393 4424 4327 4403 4367 4367 4277 4187 4188 4178 4158 4315 4023 4005 4221 4345 4200 4145 3958 3917 3936 4081 4018 4166 4577 4554 4316 4464 4355 4355 4352 4229 4525 4279 4161 4535 4378 4090 3848 3642 3915 3774 3510 3497 3874 3635 3725 3725 4222 4038 3955 4014 4056 4362 4145 4136 4110 4147 4315 4000 3950 3938 3938 3908 4196 3950 4151 3698 3857 4141 3833 3833 3869 3632 3644 3433 3365 3464 3314 3300 3272 3276 3299 3316 3317 3560 3560 3709 3709 3638 3638 3759 -9999 -9999 -9999 -9999 -9999 -9999 -9999 -9999 -9999 -9999 -9999 -9999 -9999 -9999 -9999 -9999 -9999 -9999 -9999 -9999 -9999 -9999 -9999 -9999 -9999 -9999 -9999 -9999 -9999 -9999 -9999 -9999 -9999 -9999 -9999 -9999 -9999 -9999 -9999 -9999 -9999 -9999 -9999 -9999 -9999 -9999 -9999 -9999 -9999 -9999 -9999 -9999 -9999 -9999 -9999 3857 3438 3776 3510 3510 3547 3170 3526 3529 3365 3675 3579 3324 3199 3489 3414 3414 3505 3660 3731 4213 3983 3974 4384 4001 3380 3275 3350 3010 3010 3019 2566 2623 2668 2743 2486 2957 2660 2266 2023 1929 1837 2123 1462 1411 1411 1941 1495 1799 1799 1487 1487 1957 1799 954 1466 878 1168 1161 1161 1520 1599 1396 879 779 779 773 801 981 1045 1105 1446 1891 1891 2071 1285 1285 1230 877 1332 1154 1403 1403 1344 1682 1464 1354 1242 1235 886 689 681 930 1435 1531 1569 672 817 817 830 622 555 555 557 569 996 990 735 723 723 1079 797 880 901 965 936 936 952 1066 824 824 797 915 -9999 -9999 -9999 -9999 -9999 1668 1595 1488 1488 -9999 -9999 -9999 -9999 -9999 -9999 -9999 -9999 -9999 -9999 -9999 -9999 -9999 -9999 -9999 -9999 -9999 -9999 -9999 -9999 -9999 -9999 -9999 -9999 -9999 -9999 -9999 -9999 -9999 -9999 -9999 -9999 -9999 -9999 -9999 -9999 -9999 -9999 -9999
4714 4717 4723 4721 4727 4732 4737 4757 4767 4846 4846 4973 -9999 -9999 -9999 -9999 -9999 -9999 -9999 -9999 -9999 -9999 -9999 -9999 -9999 -9999 -9999 -9999 -9999 -9999 -9999 -9999 -9999 -9999 -9999 -9999 -9999 -9999 -9999 -9999 -9999 -9999 -9999 -9999 -9999 -9999 -9999 -9999 -9999 -9999 -9999 -9999 -9999 -9999 -9999 -9999 -9999 -9999 -9999 -9999 -9999 -9999 -9999 -9999 -9999 -9999 -9999 -9999 -9999 -9999 -9999 -9999 -9999 -9999 -9999 -9999 -9999 -9999 -9999 -9999 -9999 -9999 -9999 -9999 -9999 -9999 -9999 -9999 -9999 -9999 -9999 -9999 -9999 -9999 -9999 -9999 -9999 -9999 -9999 -9999 -9999 -9999 -9999 -9999 -9999 -9999 -9999 4208 4157 4128 4052 4045 4001 4001 3966 3966 4209 4384 3950 3798 3832 4209 4226 4181 4440 4457 4457 4053 4151 3672 3697 3531 3531 3568 3605 3871 4832 4832 3958 3958 4603 4837 4338 4725 4422 4573 4533 4570 4541 4516 4501 4556 4700 4647 4419 4419 4503 4460 4419 4357 4494 4452 4489 4354 4694 4619 4619 4211 4380 4280 4011 4207 4066 3943 3938 3933 3932 3928 3923 4006 4088 4031 3907 3918 3918 4468 4147 4429 4261 4049 4195 4385 4146 4074 4016 4120 4140 4414 3959 3977 4195 4324 4123 4177 4574 4640 4741 4741 4661 4616 4526 4396 4443 4359 4178 4172 4160 4154 4130 4120 4188 4117 4088 4076 4358 4358 4523 4263 4363 4404 4316 4277 4182 4188 4127 4143 4148 4148 4027 4163 4595 4200 4193 4089 3913 3918 3899 3942 4202 4407 4157 4231 4389 4189 4355 4604 4650 4525 4520 4193 4240 4378 3884 4048 3689 4230 4004 3588 3534 3742 3500 3633 3725 3957 4007 4221 4221 3962 4090 4215 4215 4244 4060 4227 4254 4335 3962 3834 3832 3887 3708 3714 3576 3724 3724 4069 3794 4013 3882 3699 3845 3734 3573 3335 3278 3274 3261 3256 3317 3535 3618 3618 3668 3691 3638 3595 3493 3493 3722 -9999 -9999 -9999 -9999 -9999 -9999 -9999 -9999 -9999 -9999 -9999 -9999 -9999 -9999 -9999 -9999 -9999 -9999 -9999 -9999 -9999 -9999 -9999 -9999 -9999 -9999 -9999 -9999 -9999 -9999 -9999 -9999 -9999 -9999 -9999 -9999 -9999 -9999 -9999 3649 3649 3568 3620 3720 -9999 -9999 -9999 -9999 -9999 -9999 -9999 3551 3513 3366 3526 3390 3429 3429 3281 3170 3160 3511 3317 3539 3183 3183 3372 3334 4029 3665 3684 3684 3731 4016 4587 3522 3522 3850 3914 3175 3447 3623 3094 2709 2447 2447 2364 2743 2923 3106 2724 2266 2023 1929 1670 1670 1699 1879 1879 2178 1857 1695 1695 1225 2234 1164 1164 1458 878 852 852 933 1201 1201 1484 1406 1519 1351 1643 813 801 736 994 845 1576 1745 1864 1864 1574 1136 877 877 1332 1088 1083 1083 1039 1131 1464 1185 861 861 963 850 681 699 753 753 942 1007 835 835 682 602 555 555 1046 987 1037 1037 799 723 723 888 755 841 792 903 820 820 870 954 852 836 767 767 789 832 1293 1467 1404 1404 1607 1488 1767 -9999 -9999 -9999 -9999 -9999 -9999 -9999 -9999 -9999 -9999 -9999 -9999 -9999 -9999 -9999 -9999 -9999 -9999 -9999 -9999 -9999 -9999 -9999 -9999 -9999 -9999 -9999 -9999 -9999 -9999 -9999 -9999 -9999 -9999 -9999 -9999 -9999 -9999 -9999
4714 4720 4720 4724 4736 4736 4737 4757 4757 4771 4846 4799 -9999 -9999 -9999 -9999 -9999 -9999 -9999 -9999 -9999 -9999 -9999 -9999 -9999 -9999 -9999 -9999 -9999 -9999 -9999 -9999 -9999 -9999 -9999 -9999 -9999 -9999 -9999 -9999 -9999 -9999 -9999 -9999 -9999 -9999 -9999 -9999 -9999 -9999 -9999 -9999 -9999 -9999 -9999 -9999 -9999 -9999 -9999 -9999 -9999 -9999 -9999 -9999 -9999 -9999 -9999 -9999 -9999 -9999 -9999 -9999 -9999 -9999 -9999 -9999 -9999 -9999 -9999 -9999 -9999 -9999 -9999 -9999 -9999 -9999 -9999 -9999 -9999 -9999 -9999 -9999 -9999 -9999 -9999 -9999 -9999 -9999 -9999 -9999 -9999 -9999 -9999 -9999 -9999 -9999 -9999 4268 4171 4171 4052 4181 4001 4001 3966 3991 4026 3896 3883 3931 3832 3821 3855 4140 4264 4457 4457 4653 4151 4151 4124 4586 3578 3578 3605 4202 4426 4803 4071 4089 4089 4108 4152 4410 4422 4333 4898 4580 4541 4541 4644 4770 4717 4552 4451 4451 4591 4489 4340 4644 4494 4494 4489 4572 4572 4280 4247 4576 4380 4174 4114 4230 4230 4170 3935 3933 3932 3928 3922 4045 4139 4265 3904 4251 3918 3890 3890 4330 4110 3970 4195 4038 4038 3969 3969 4120 4140 4140 3959 3977 4072 4324 4094 4586 4528 4473 4561 4639 4629 4512 4461 4461 4541 4443 4178 4172 4160 4146 4135 4242 4188 4188 4088 4061 4358 4358 4152 4239 4363 4564 4333 4210 4302 4266 4127 4143 4507 4345 4027 4104 4403 4403 4318 4126 4042 4094 3899 3942 4120 4157 4103 4347 4478 4189 4080 4224 4650 4352 4342 4240 4375 4375 3879 3825 4360 4230 3631 3631 3944 3944 3466 3520 3672 3672 3922 3954 3886 3962 4090 4471 4017 4230 3979 4227 4049 4109 4079 3947 3832 3887 3860 3734 3576 3724 3724 3647 3764 3873 4014 4061 4061 3694 3694 3660 3758 3758 3449 3256 3267 3247 3319 3261 3658 3772 3675 3725 3725 3450 3450 3574 -9999 -9999 -9999 -9999 -9999 -9999 -9999 -9999 -9999 -9999 -9999 -9999 -9999 -9999 -9999 -9999 -9999 -9999 -9999 -9999 -9999 -9999 -9999 -9999 -9999 -9999 -9999 -9999 -9999 -9999 -9999 -9999 -9999 -9999 -9999 -9999 4045 3693 3693 3615 3568 3620 3720 -9999 -9999 -9999 -9999 -9999 3739 3569 3537 3513 3636 3352 3587 3429 3319 3319 3264 3160 3511 3217 3539 3152 3152 3430 3430 4029 4029 3686 3686 3642 3642 3801 3344 3344 3850 3688 3175 3447 3613 3094 3094 2530 2530 2364 2727 2975 3106 2705 2307 2034 1943 1670 1670 2030 2341 1868 1781 1630 1497 1497 1276 1276 1164 1107 994 980 889 903 876 826 795 827 791 936 1014 1014 982 1389 736 886 734 772 1496 1674 1658 1471 1136 934 788 1169 1088 952 1255 928 928 1511 1120 782 782 1070 913 699 630 630 753 942 770 763 763 617 602 617 617 747 889 1244 1292 1116 928 870 888 885 792 792 898 820 820 790 787 787 762 767 767 932 832 985 1467 1333 1296 1291 1757 1757 1871 -9999 -9999 -9999 -9999 -9999 -9999 -9999 -9999 -9999 -9999 -9999 -9999 -9999 -9999 -9999 -9999 -9999 -9999 -9999 -9999 -9999 -9999 -9999 -9999 -9999 -9999 -9999 -9999 -9999 -9999 -9999 -9999 -9999 -9999 -9999 -9999 -9999 -9999
4717 4717 4726 4736 4741 4741 4758 4748 4755 4771 4787 4792 -9999 -9999 -9999 -9999 -9999 -9999 -9999 -9999 -9999 -9999 -9999 -9999 -9999 -9999 -9999 -9999 -9999 -9999 -9999 -9999 -9999 -9999 -9999 -9999 -9999 -9999 -9999 -9999 -9999 -9999 -9999 -9999 -9999 -9999 -9999 -9999 -9999 -9999 -9999 -9999 -9999 -9999 -9999 -9999 -9999 -9999 -9999 -9999 -9999 -9999 -9999 -9999 -9999 -9999 -9999 -9999 -9999 -9999 -9999 -9999 -9999 -9999 -9999 -9999 -9999 -9999 -9999 -9999 -9999 -9999 -9999 -9999 -9999 -9999 -9999 -9999 -9999 -9999 -9999 -9999 -9999 -9999 -9999 -9999 -9999 -9999 -9999 -9999 -9999 -9999 -9999 -9999 -9999 -9999 -9999 -9999 4448 4304 4339 4181 4056 4026 4126 4126 3919 4124 3927 3877 3846 3868 3868 3897 3905 3963 3963 4149 4149 4535 4132 4132 3580 3994 3757 4036 4085 4290 4770 4260 3990 4108 4867 4410 4311 4333 4690 4596 4593 4650 4693 4656 4645 4521 4521 4737 4584 4496 4485 4485 4624 4694 4675 4601 4437 4334 4399 4576 4576 4177 4046 4069 4201 4170 4099 4004 3956 3956 3919 3924 3916 3908 3908 4231 4408 3886 3880 3927 3946 3876 3954 4014 4014 3969 3924 3924 4482 3905 3905 4248 4236 4267 4110 4526 4500 4554 4532 4448 4624 4459 4443 4401 4452 4277 4225 4197 4150 4147 4317 4238 4355 4176 4248 4219 4071 4071 4105 4379 4379 4284 4349 4251 4251 4276 4276 4221 4286 4105 4105 4049 4330 4343 4225 4058 4042 4224 3868 3868 3917 3856 3985 4435 4435 4095 3955 4165 4243 4355 4288 4387 4225 4578 3879 3879 4203 3958 3749 3969 4040 3905 3466 3520 3630 3837 3752 3731 4025 4085 3954 4013 4181 3892 4037 3906 3739 3739 3921 3992 4268 4233 3881 3725 3587 3698 3541 3838 3611 3611 3598 3697 3831 3694 3694 3959 3576 3576 3646 3767 3519 3361 3339 3239 3372 3809 3886 3743 3622 3450 3450 3398 3549 -9999 -9999 -9999 -9999 -9999 -9999 -9999 -9999 -9999 -9999 -9999 -9999 -9999 -9999 -9999 -9999 -9999 -9999 -9999 -9999 -9999 -9999 -9999 -9999 -9999 -9999 -9999 -9999 -9999 -9999 -9999 -9999 -9999 -9999 3960 3699 3633 3633 3615 3527 3501 3501 3538 3615 -9999 -9999 3696 3538 3461 3421 3495 3302 3331 3455 3672 3510 3373 3281 3513 3513 3224 3282 3093 3152 3177 3285 3535 3535 3612 3912 3892 3642 3423 3260 3344 3691 3688 3587 3613 3613 3228 3013 3035 3035 2727 2250 2591 2963 3054 2307 2247 2092 2092 2523 2283 2135 1868 1781 1744 1594 1594 1681 1604 1360 1280 994 980 1087 1541 1512 982 795 827 1526 909 865 957 770 736 1234 786 735 705 1084 1602 1313 1047 1047 1292 858 741 690 655 655 755 755 899 753 710 710 792 828 776 627 627 747 848 606 650 650 666 666 591 591 674 792 876 969 969 971 971 1228 956 887 772 852 852 829 790 787 766 766 824 1151 1408 1266 1121 1195 1195 1243 1284 1398 1520 1591 1823 -9999 -9999 -9999 -9999 -9999 -9999 -9999 -9999 -9999 -9999 -9999 -9999 -9999 -9999 -9999 -9999 -9999 -9999 -9999 -9999 -9999 -9999 -9999 -9999 -9999 -9999 -9999 -9999 -9999 -9999 -9999 -9999 -9999 -9999 -9999 -9999 -9999
4733 4733 4881 4815 4744 4757 4758 4753 4758 4768 4777 4788 4786 -9999 -9999 -9999 -9999 -9999 -9999 -9999 -9999 -9999 -9999 -9999 -9999 -9999 -9999 -9999 -9999 -9999 -9999 -9999 -9999 -9999 -9999 -9999 -9999 -9999 -9999 -9999 -9999 -9999 -9999 -9999 -9999 -9999 -9999 -9999 -9999 -9999 -9999 -9999 -9999 -9999 -9999 -9999 -9999 -9999 -9999 -9999 -9999 -9999 -9999 -9999 -9999 -9999 -9999 -9999 -9999 -9999 -9999 -9999 -9999 -9999 -9999 -9999 -9999 -9999 -9999 -9999 -9999 -9999 -9999 -9999 -9999 -9999 -9999 -9999 -9999 -9999 -9999 -9999 -9999 -9999 -9999 -9999 -9999 -9999 -9999 -9999 -9999 -9999 -9999 -9999 -9999 -9999 -9999 -9999 -9999 4517 4339 4518 4298 4193 4126 4126 4249 4124 3927 3887 3882 4165 3941 3897 3905 3963 3963 4009 4060 4380 4694 3903 3580 3498 3757 4036 4416 4446 4623 4141 4526 4640 4867 4718 4794 4749 4690 4806 4593 4641 4693 4693 4582 4521 4614 4737 4584 4496 4633 4485 4624 4657 4675 4845 4423 4334 4399 4299 4236 4147 4119 4069 4201 4124 4099 4085 4031 3956 3924 3924 3938 3938 4136 4231 4481 3964 4122 3927 3876 3868 3866 4172 3932 3970 3902 3911 4016 3871 4164 4164 4144 4267 4306 4306 4441 4465 4703 4448 4401 4398 4449 4401 4441 4422 4422 4197 4147 4147 4162 4162 4173 4191 4301 4219 4071 4071 4105 4155 4384 4235 4435 4296 4251 4239 4239 4090 4090 4062 4044 4142 4330 4150 4081 4130 4101 4396 4302 4314 3917 3839 3839 4200 4404 4091 3955 4263 4243 4355 4143 4587 4225 4039 3981 4293 4203 3958 4402 3940 3916 4042 3448 3596 3630 3630 4077 3729 4025 3927 3954 4013 4014 3892 4037 3906 3739 3739 3735 3860 4003 4029 3881 3881 4354 3961 3789 3411 3707 3611 3598 3697 3829 3731 3637 3959 3736 3576 3646 3767 3519 3594 3661 3221 3193 3208 3313 3632 3625 3595 3723 3393 3393 -9999 -9999 -9999 -9999 -9999 -9999 -9999 -9999 -9999 -9999 -9999 -9999 -9999 -9999 -9999 -9999 -9999 -9999 -9999 -9999 -9999 -9999 -9999 -9999 -9999 -9999 -9999 -9999 -9999 -9999 -9999 -9999 -9999 -9999 3960 3699 3633 3655 3690 3527 3485 3521 3538 3556 3682 3929 3929 3508 3441 3439 3439 3298 3348 3497 3566 3510 3510 3430 3566 3092 3224 3117 3019 3019 3287 3285 3535 3535 3916 3916 3518 3130 3037 2844 3676 3691 3651 3441 3441 3718 3081 3013 3424 2747 2250 2250 2591 2732 2701 2701 2802 3166 2824 2523 2283 2455 2139 1623 2180 1594 1594 1553 1791 1853 1280 1280 1355 1341 1584 1443 1379 1379 1385 1526 1230 1163 1163 798 736 701 786 735 705 817 1602 1088 995 882 1292 944 895 895 655 655 664 664 707 700 795 710 663 910 1119 627 605 605 604 606 606 790 846 804 591 591 702 667 709 969 950 1505 1356 1308 948 887 818 832 832 791 784 963 963 1116 1019 1110 1214 1214 1202 1195 1195 1221 1304 1611 1520 1481 1741 -9999 -9999 -9999 -9999 -9999 -9999 -9999 -9999 -9999 -9999 -9999 -9999 -9999 -9999 -9999 -9999 -9999 -9999 -9999 -9999 -9999 -9999 -9999 -9999 -9999 -9999 -9999 -9999 -9999 -9999 -9999 -9999 -9999 -9999 -9999 -9999 -9999
